0.242306 -0.858851 0.937023
0.007638 -0.327534 0.913038
0.295599 -0.381161 0.827526
0.015526 -0.436288 0.911136
0.036586 -0.801219 1.079984
0.103292 0.566434 0.422813
0.319376 -0.545423 0.921231
0.199218 -0.374463 0.963689
0.246295 0.131869 -0.427871
0.232632 -0.799625 1.096523
0.206751 -0.340827 0.942034
0.107404 0.618302 0.375965
0.103328 -0.804784 1.078057
0.246552 0.177305 -0.429107
-0.048297 0.995337 0.006854
-0.022699 -0.168737 0.811492
0.168435 -0.789529 1.112209
0.100872 -0.254596 0.925852
0.218054 -0.674854 1.076648
0.004310 0.996686 0.062780
0.228114 0.326053 -0.482043
0.114151 0.670223 0.362397
0.296271 -0.678845 0.973565
-0.045044 -0.685980 0.937621
-0.056105 -0.762740 0.929769
0.186883 -0.248136 0.914970
0.158753 0.145810 0.220847
0.291681 0.355291 -0.483343
0.126040 -0.755223 1.133296
0.016873 -0.597623 1.036233
0.127109 -0.704319 1.110650
0.032156 -0.177957 0.879896
0.158073 0.374683 0.515031
0.282668 -0.762776 1.050776
-0.007813 -0.257376 0.849523
-0.009422 -0.341205 0.890654
0.029541 -0.768235 1.095376
0.275131 -0.377930 0.889992
0.247029 -0.451309 0.964672
-0.014391 -0.853437 1.018038
0.150345 -0.306683 0.949877
0.167312 -0.781548 1.116893
0.286176 -0.698469 1.009246
0.220119 -0.429894 0.968261
0.184182 -0.771221 1.111046
0.041290 -0.346287 0.944474
0.088132 0.528165 0.453490
0.172745 0.045701 0.301769
0.193561 -0.604152 1.059815
0.113017 0.038649 0.254407
0.271736 -0.513552 0.955642
0.091656 -0.775261 1.132630
0.109011 0.689130 0.352007
0.317265 -0.632100 0.968519
0.174017 0.302863 -0.456937
0.249394 -0.305862 0.917821
0.232118 -0.484268 0.981301
0.196725 -0.128396 0.870477
0.066327 -0.261392 0.918693
0.030001 -0.321030 0.926724
0.194342 -0.333386 0.916381
0.248111 -0.161797 0.816458
-0.033258 -0.677898 0.886840
0.338175 0.381323 -0.517433
0.258151 -0.033991 -0.512286
0.131313 0.104233 -0.277422
0.089396 -0.062325 -0.469509
0.034376 -0.832145 1.018353
0.294527 -0.605091 0.827399
0.107706 -0.616994 1.124095
0.177357 -0.768148 1.125296
0.284467 -0.709705 1.010863
0.218472 -0.838323 0.986342
0.117962 -0.782684 1.136067
0.292847 -0.340588 0.845862
0.255496 -0.335156 0.662830
0.284623 -0.479885 0.916281
0.161204 -0.758797 1.105599
0.019032 -0.241930 0.881160
0.197551 -0.857049 0.966232
0.329427 -0.441489 0.859097
0.295206 -0.646039 0.957975
0.012818 0.993365 0.058970
0.127308 -0.253324 0.927814
-0.001817 -0.002577 -0.425836
-0.099991 0.993557 -0.083627
0.079415 0.307478 0.681210
0.007285 -0.310800 0.904044
0.086978 -0.282200 0.956308
0.090853 -0.269682 0.929051
0.264409 -0.104889 -0.545987
0.072312 -0.296232 0.937616
0.099548 0.536370 0.395306
0.105507 0.677133 0.323886
0.188638 0.071494 -0.366631
0.018811 -0.362171 0.935004
0.250604 -0.635521 -0.724185
0.256883 -0.126596 -0.517914
0.276845 0.019922 -0.442217
0.047043 0.189728 0.450774
0.157336 0.342938 0.647132
0.027345 -0.834546 1.010548
0.035713 -0.330839 0.931886
-0.004054 -0.776194 1.039166
-0.035087 -0.312248 0.765295
0.015920 -0.707474 1.037590
-0.030851 -0.296377 0.828473
0.017026 -0.833676 1.033079
0.139281 -0.889167 0.820898
0.279957 -0.705812 1.024923
0.316578 -0.336559 0.832492
0.101334 0.537734 0.427698
0.291439 -0.700617 0.996051
0.136640 0.077919 -0.298412
-0.016871 -0.658806 0.981092
0.097095 0.053281 0.244929
0.110472 -0.808178 1.123576
0.114654 0.564142 0.425966
0.066066 -0.257989 0.917354
0.027649 -0.419087 0.971683
0.268578 0.155297 -0.429088
0.029731 -0.281585 0.909602
0.127696 0.098683 -0.159746
0.024367 -0.814432 1.059630
0.123405 -0.222710 0.912125
0.162316 -0.823134 1.059176
0.044389 -0.235544 0.898737
0.260693 -0.248349 -0.602899
0.250126 -0.196094 -0.521651
0.079380 0.212102 -0.531088
0.204390 -0.801272 1.060366
0.028853 -0.424969 0.967912
0.085512 0.156202 -0.344978
0.122834 0.091235 0.020060
0.297177 -0.334437 0.799017
0.138570 -0.791814 1.107050
0.254923 0.019623 -0.442457
-0.039959 -0.642509 0.972037
0.198899 -0.321951 0.940012
0.128448 0.098250 -0.172104
0.030202 -0.307211 0.918997
-0.018662 -0.846151 0.947895
-1.200291 0.208941 -0.708074
-0.039895 -0.701640 0.994353
0.077570 -0.117069 0.846039
0.154434 -0.039330 -0.417888
0.290521 -0.851771 0.953554
0.313697 -0.341814 0.810840
0.279617 -0.838880 1.018504
0.000148 -0.266536 0.873222
0.146756 0.072837 -0.283127
0.006689 -0.800084 1.064965
-0.048763 -0.573749 0.846635
0.105260 0.102146 -0.280782
0.235246 -0.625659 1.044265
0.195257 -0.881420 0.885935
0.090081 0.557413 0.435482
0.277777 -0.521727 0.946219
0.291826 -0.333973 0.811262
0.189479 -0.780380 1.116553
0.093418 -0.798812 1.111808
0.254668 -0.372280 0.920186
0.260832 -0.072121 -0.510108
0.116019 0.105049 -0.178364
0.133669 0.680062 0.329927
0.275725 -0.294339 -0.629434
0.248530 -0.016620 -0.452592
0.096809 -0.279743 0.937309
0.262537 -0.578451 0.993644
-0.032833 -0.350443 0.849611
0.260209 -0.777004 1.081728
0.053924 -0.325413 0.940209
0.181893 -0.416162 0.972632
0.043291 -0.775369 1.116545
-1.074154 0.027725 -0.705958
0.067929 0.190561 -0.372559
0.078611 0.175760 0.234722
0.250831 -0.262459 -0.552000
0.131564 0.278702 -0.440388
0.117656 -0.806836 1.098776
0.105488 0.075846 0.051932
-1.202991 0.460227 -0.728700
0.188779 -0.896618 0.836546
0.270985 -0.026011 -0.446420
0.256734 -0.596231 -0.704628
0.244123 -0.275638 0.887744
0.031083 -0.354323 0.937745
0.057824 -0.769311 1.124344
0.033062 -0.335134 0.931325
0.093848 -0.700186 1.094572
0.064832 -0.827971 1.031941
0.036488 -0.692936 1.049974
-0.013065 -0.273354 0.865788
0.309721 -0.193751 0.761418
0.286406 -0.694760 1.007315
-1.227947 0.230084 -0.723597
-0.023256 -0.210677 0.843997
-0.010640 -0.601418 1.003154
0.246830 -0.333096 0.975407
0.216591 -0.328414 0.931606
0.093757 -0.782662 1.123493
0.118180 0.109643 -0.125140
0.077942 -0.426772 0.991259
0.008209 -0.284477 0.891287
0.205107 -0.366595 0.953807
0.271010 -0.654954 1.013691
0.119520 -0.191739 0.885905
-0.001665 -0.498543 0.974396
-0.081408 -0.694037 0.947797
0.181253 -0.334513 0.975999
-1.202242 0.463383 -0.719414
-1.207198 0.172792 -0.702072
0.245047 -0.275700 0.889008
-1.209720 0.374424 -0.701473
0.289436 -0.162679 0.742154
-0.024855 -0.306460 0.842498
-1.148728 0.096190 -0.707135
0.248717 -0.353713 -0.644607
0.250190 -0.410613 -0.658551
0.244522 -0.269630 0.886255
-1.225676 0.367120 -0.735744
0.217492 -0.333063 0.972707
0.108273 0.733549 0.321468
-1.115721 0.043232 -0.763862
0.199441 -0.254475 0.912564
0.109822 -0.903505 0.847244
-1.142228 0.080783 -0.707613
0.223214 -0.229064 -0.618248
0.138609 0.151009 0.321156
-0.039776 -0.276847 0.793595
-0.037265 -0.864012 0.905767
0.305040 -0.816334 0.971150
0.243325 -0.769766 1.062898
0.289084 -0.562095 0.936355
0.027905 0.319209 0.605668
-0.045551 -0.307799 0.691556
0.255833 -0.831389 0.995118
0.215771 -0.344205 0.705538
0.056556 -0.833169 1.083771
0.033668 -0.781867 1.110430
0.044260 0.929090 0.165913
0.106293 0.688605 0.333020
0.084880 0.137436 -0.294013
0.277877 -0.169001 0.790151
0.250268 -0.628510 -0.736128
0.132662 -0.746863 1.099882
0.096976 -0.373648 0.977380
-1.221303 0.222019 -0.709799
0.254220 -0.532007 0.984903
0.088375 -0.334337 0.956830
0.263083 -0.210197 -0.589625
-1.211029 0.451350 -0.720975
-1.178473 0.130891 -0.698101
0.168210 -0.719498 1.116350
0.135916 0.081981 -0.104864
0.162582 -0.789292 1.118656
0.163513 -0.845432 1.002100
0.252811 -0.481670 -0.669548
-0.942186 0.729706 -0.703494
-0.964692 0.052965 -0.734676
0.297808 -0.656738 0.923875
0.081148 0.849624 0.251858
0.232651 -0.645087 -0.729294
-0.030686 -0.704115 0.985841
0.105761 0.120964 -0.209754
0.111785 0.738902 0.284547
0.264648 -0.548312 -0.678055
0.261726 -0.873247 0.911356
0.131275 0.094717 -0.010485
-1.115099 0.051633 -0.708073
0.089779 0.810326 0.267515
0.268019 -0.653618 -0.720527
0.249626 -0.446080 -0.666921
0.250583 -0.595316 -0.688135
0.253241 -0.266220 0.873705
0.091793 -0.275847 0.934369
0.035548 0.930416 0.124274
0.265121 -0.560714 0.988490
-0.052103 -0.724153 0.971082
0.114558 0.767614 0.264721
0.255609 -0.707862 -0.734051
0.254929 -0.307738 -0.599306
0.006206 -0.724125 1.060910
0.116915 0.101506 -0.081081
-1.103476 0.072276 -0.715145
0.100128 0.773933 0.264962
0.259349 -0.563320 -0.690011
0.265653 -0.083154 -0.468370
0.298667 -0.646683 -0.734387
0.255270 -0.519553 -0.678736
0.249441 -0.553730 -0.670399
0.282300 -0.375590 0.775444
0.264265 -0.603021 -0.688331
0.223800 -0.871472 0.889504
-1.231854 0.228958 -0.712776
0.039303 -0.879530 0.907012
0.089690 -0.706087 1.092674
-0.038465 0.306191 0.550255
0.111777 0.078344 -0.117513
0.179472 -0.814446 1.065421
0.029970 -0.271867 0.894243
0.331592 -0.486181 0.881126
0.209848 -0.462235 0.993715
-0.034577 -0.413060 0.876931
-0.052569 0.990793 -0.022573
0.252348 -0.780282 1.088244
0.229161 -0.870784 0.883461
0.138054 0.060939 0.255023
0.272645 -0.595907 1.034449
0.267348 -0.636301 -0.716451
0.075739 0.136444 0.399434
0.308447 -0.363370 0.818173
0.295510 -0.293013 0.795051
-0.036421 0.270463 0.589590
0.117708 0.087564 0.075695
0.280788 -0.066706 -0.459345
0.272381 -0.306912 -0.588304
0.142985 -0.452989 1.010248
0.192767 -0.402429 0.953390
0.259905 -0.376730 -0.598668
0.081162 0.857395 0.211472
0.276076 -0.404237 -0.658978
-1.242411 0.294476 -0.723622
0.249712 -0.476578 -0.676371
0.116785 -0.889019 0.873806
0.234394 -0.816586 1.072026
0.240339 -0.527372 1.018197
0.131126 0.081974 -0.212666
0.255213 -0.220147 -0.546285
0.173855 -0.330045 0.953675
0.104001 0.125522 -0.185048
0.257989 -0.329536 -0.627971
0.104853 0.749863 0.318890
0.091201 0.795850 0.252455
0.264469 -0.122068 -0.486151
0.282739 -0.668360 -0.718528
0.308855 -0.485503 0.866496
0.041722 -0.423341 0.976193
0.064418 0.136806 0.292231
0.251449 -0.470419 -0.645515
0.150389 -0.871663 0.932207
0.250991 -0.397193 -0.654427
0.038353 0.214892 -0.447112
0.054171 0.904189 0.170937
0.062410 0.934823 0.180081
0.308016 -0.530314 0.883332
0.241914 0.058019 0.222885
0.117161 0.182896 0.354141
0.262055 -0.336785 -0.608694
0.078796 -0.277518 0.902622
0.273152 -0.552035 -0.696938
-0.920073 -0.138524 -0.696982
-0.313923 0.683076 -0.511122
0.011004 0.982832 0.107483
0.128734 0.057305 -0.299462
-1.238110 0.268941 -0.721582
0.014000 -0.779694 1.087810
0.092111 -0.685474 1.106822
0.335499 -0.507957 0.860726
0.198134 -0.456148 0.994851
0.261565 -0.409308 0.921950
-0.007137 -0.795014 1.077540
0.041718 -0.484176 1.003022
0.199332 -0.268656 0.917863
0.067470 -0.293847 0.932429
0.058214 -0.298475 0.931740
0.160423 -0.376684 0.976387
0.190619 -0.390911 0.973166
0.024736 -0.809838 1.056993
-1.216125 0.211678 -0.699541
0.232220 -0.491711 0.988071
0.190340 0.088622 0.285451
-0.020335 -0.490870 0.948078
0.199031 -0.473622 1.002291
0.283254 0.150352 -0.440217
0.270096 -0.321171 -0.586125
-0.640098 0.326868 -0.724745
0.124130 -0.790999 1.090549
-1.226738 0.360681 -0.734995
-1.129653 0.096546 -0.728321
0.149433 -0.881317 0.909199
0.111694 0.753910 0.313866
0.095395 0.825211 0.237405
0.091098 -0.611366 1.034345
0.260717 -0.666087 -0.722745
0.303808 -0.657879 -0.712207
0.129501 -0.663170 1.101569
0.070052 -0.845476 0.972735
0.174206 -0.412807 1.013547
0.271204 -0.447036 -0.633878
0.066308 0.896719 0.210067
0.045386 0.932983 0.145557
0.250773 -0.546462 -0.693361
-0.017310 -0.734245 1.020999
0.079268 -0.329755 0.950056
0.174103 -0.866173 0.901600
0.187073 -0.282379 0.930729
0.106592 0.788784 0.281354
0.028521 0.927951 0.147648
0.053745 0.920847 0.187964
-0.018802 0.995470 0.067568
-0.110156 1.011587 -0.085120
0.092992 -0.390954 0.982693
-0.646564 0.329425 -0.734261
0.652866 0.557573 -0.678375
-0.064321 1.008598 -0.027056
0.285995 -0.740385 1.028203
0.065183 -0.363164 0.960866
0.250633 -0.298396 -0.629352
0.238983 -0.395492 0.988099
-1.209743 0.178021 -0.700652
0.059331 0.946289 0.141010
0.007762 0.973936 0.106198
0.186137 -0.416044 0.985303
-0.012442 0.995857 0.037595
-0.048983 1.013948 0.005498
-1.008943 -0.027717 -0.714065
0.012361 0.977821 0.106782
0.241348 -0.870136 0.889047
0.170214 -0.812534 1.001711
0.161669 -0.791139 1.118055
-0.019314 -0.572154 0.981666
0.071751 -0.817513 1.124732
-1.154414 0.120312 -0.729203
0.231956 -0.806108 1.054292
0.014634 0.294107 0.651723
0.098398 0.119554 -0.200873
-0.099906 1.015155 -0.094131
0.030241 -0.304508 0.918440
0.066610 -0.246836 0.912302
0.113077 0.698223 0.312491
0.041677 -0.862755 0.946733
0.030332 -0.671270 1.073036
-1.210037 0.428046 -0.713037
0.315176 -0.215695 0.708151
0.169347 -0.841891 1.003174
-1.066111 0.000105 -0.727947
0.043004 0.943693 0.149054
0.090032 0.843120 0.219208
0.162901 0.066392 -0.057550
-0.650986 0.390586 -0.729066
0.273265 -0.611155 -0.721106
0.046362 -0.299134 0.896615
0.061199 0.869201 0.195953
0.053097 -0.534561 1.029722
0.097389 -0.373461 0.977063
0.042019 -0.485955 1.004802
0.313021 -0.374272 0.784785
-0.106677 1.014820 -0.093366
-0.282077 -0.254838 -0.728336
-0.027302 0.980250 0.038892
0.018873 -0.433489 0.964890
0.030433 -0.425439 0.971628
0.164010 0.159051 0.375677
0.281453 -0.316919 0.785129
-1.019725 -0.032010 -0.729057
0.272259 -0.059877 -0.569549
0.173765 0.042275 0.235522
-0.311254 -0.273306 -0.751495
-0.034199 1.008794 0.038210
-0.313627 -0.271006 -0.716565
0.218670 -0.514624 1.032585
0.275848 -0.166792 -0.596865
0.235173 -0.672311 1.065825
0.025098 -0.564291 1.031912
-0.717428 -0.102517 -0.741622
-0.325234 0.812533 -0.380156
-1.054674 0.003240 -0.708115
-0.257524 -0.249384 -0.713307
-0.014631 0.996304 0.071495
-0.129305 1.006869 -0.102427
-0.330610 0.726454 -0.448103
-0.444749 -0.255473 -0.722140
-0.084785 1.013405 -0.037760
-0.317749 0.704412 -0.499951
-0.560815 0.337330 -0.689786
0.040173 0.292283 0.674280
-0.003854 -0.844403 0.961058
0.203640 -0.378902 0.933494
0.211319 -0.840497 1.004855
0.156395 -0.812914 1.059081
0.107111 0.707342 0.313959
0.289316 -0.352760 0.805571
0.254064 -0.576507 1.004434
0.238503 -0.792782 1.093535
-1.048111 0.011039 -0.727490
-1.203448 0.457057 -0.718751
0.115889 0.114563 -0.156667
0.106283 -0.290356 0.943246
0.264052 -0.645827 1.023515
0.028911 -0.553165 1.022656
0.144747 -0.877098 0.830042
-0.169204 0.986659 -0.183340
0.004309 0.269925 0.617410
-0.051837 -0.594690 0.913362
0.174517 -0.441917 0.998604
0.210351 -0.484078 0.998632
-0.179211 0.987700 -0.170044
0.044105 -0.850593 0.974220
0.050515 -0.818109 1.067326
-0.028257 0.984649 0.025081
0.083620 -0.813554 1.064517
0.015149 0.973111 0.120099
-0.279155 -0.271597 -0.722637
0.133412 -0.348323 0.967966
-0.420057 0.262098 -0.665230
-0.105228 1.016884 -0.061804
-0.039838 0.024970 -0.448873
0.285816 0.623815 -0.686234
0.099804 -0.889156 0.875144
0.270444 -0.534845 0.964468
0.112378 -0.834709 1.011284
-1.021053 -0.015705 -0.712790
-0.325203 -0.247113 -0.724964
-0.356231 -0.264724 -0.729955
-0.257684 -0.288351 -0.755876
-0.493656 0.277488 -0.685722
-0.352868 0.201091 -0.643658
-0.395320 -0.253746 -0.728813
-0.664022 -0.179398 -0.717558
-0.160594 0.994701 -0.142283
-0.622137 -0.185643 -0.699607
-1.068202 -0.643469 1.326432
-0.097968 0.076766 -0.462698
0.309153 -0.728155 0.969056
0.107102 -0.825184 1.034977
-1.221802 0.416705 -0.728658
-0.013166 -0.682541 1.023199
0.094393 -0.844723 1.007953
-0.955839 0.718031 -0.725622
-0.262249 -0.263229 -0.698638
-0.649136 -0.171481 -0.723045
-0.386802 0.242981 -0.656368
0.238013 -0.699646 -0.716590
0.088282 -0.358517 0.962382
0.231626 -0.350688 0.874220
0.262731 -0.330883 0.890442
0.024962 -0.294837 0.892626
0.222286 -0.317828 0.922581
0.041383 -0.832213 1.016054
0.046446 -0.759594 1.125149
0.211051 -0.544358 1.026014
0.121754 -0.623459 1.102965
0.279519 -0.315276 0.852991
0.232441 -0.715727 1.027565
0.056723 -0.660144 1.079012
0.273429 -0.390593 0.898618
0.258611 -0.291062 0.876476
0.104416 -0.387367 0.980376
-0.930216 -0.084256 -0.729677
0.080862 -0.828304 1.037844
0.246164 -0.392002 0.932900
0.097667 0.861747 0.215491
0.069420 0.155015 0.258907
0.079160 -0.507572 1.027472
0.198270 -0.459629 1.015890
-0.563758 -0.208538 -0.710417
-0.664922 0.388229 -0.727943
0.087574 -0.865565 0.944466
0.120429 -0.251513 0.928938
0.019191 -0.617945 1.042120
0.077174 -0.803322 1.070994
-0.599672 -0.221063 -0.719617
-0.271514 -0.266757 -0.700249
0.067021 -0.569864 1.052958
-0.418931 0.263077 -0.666136
-0.570848 0.319539 -0.689010
-1.060803 0.000434 -0.725350
-0.406586 0.254884 -0.661497
0.289400 0.661603 -0.715863
0.063412 -0.879228 0.869656
-0.665071 -0.182204 -0.725119
-0.433052 0.239266 -0.621563
-0.644126 -0.185582 -0.708983
0.194964 -0.587384 1.045320
-0.268861 -0.264549 -0.706299
0.006207 -0.573617 1.013070
0.133459 -0.543002 1.049105
-0.037712 -0.544810 0.902066
0.036458 -0.815443 1.069403
-0.766693 -0.160873 -0.713197
0.040940 -0.505804 1.009517
0.090803 0.174346 0.111576
-0.354957 -0.255130 -0.740312
-0.320404 0.642416 -0.501204
-0.385003 0.211638 -0.599486
0.065093 -0.606561 1.069369
-0.468742 -0.225897 -0.731246
-0.560320 0.314404 -0.697515
-0.503793 0.282027 -0.657655
-0.227755 0.148991 -0.527511
-0.512036 0.290426 -0.670222
-0.482511 -0.232510 -0.709065
0.207713 0.479770 0.499579
0.235038 -0.557981 1.024771
0.073704 -0.810697 1.069834
-0.729809 -0.101991 -0.735632
0.065492 -0.466792 1.003135
0.093011 -0.376040 0.976570
0.073498 0.146320 0.232156
-0.367038 0.235757 -0.597438
-0.392528 0.220929 -0.644929
-0.916781 -0.092857 -0.717266
0.039366 -0.649109 1.064893
-0.590755 0.331981 -0.709156
-0.316428 0.799415 -0.410958
-0.364322 0.200686 -0.589221
-0.600605 0.337749 -0.703768
0.146851 -0.450905 1.010062
-0.932652 -0.082540 -0.706520
-0.478177 0.270637 -0.679957
-0.604168 -0.216296 -0.727927
-0.534675 0.327948 -0.701651
0.310984 -0.647040 0.945153
0.075323 -0.784520 1.088598
0.117224 -0.648984 1.114055
-0.010266 -0.653482 1.028020
0.113294 0.700416 0.348399
0.168978 -0.871922 0.869328
0.293371 -0.471696 0.896008
-0.015649 -0.870287 0.894343
0.007438 -0.670447 1.052040
0.124868 -0.891140 0.882650
0.218587 -0.784410 1.107008
0.290164 -0.704396 -0.734673
0.283190 -0.855329 1.054238
0.145341 -0.872005 0.929220
0.029974 -0.474951 0.986982
0.116760 0.114612 -0.177258
-0.243812 -0.288629 -0.721611
-0.104608 0.083069 -0.472953
-0.950795 -0.076779 -0.727581
-0.447995 0.261828 -0.648006
0.276688 0.738296 -0.719328
-0.151281 0.967870 -0.152510
-0.477675 0.271621 -0.679346
0.085563 -0.536211 1.038233
-0.702666 -0.068172 -0.720678
0.133245 -0.425879 0.980329
-0.540942 0.297532 -0.679315
0.068288 -0.840006 0.999367
0.146480 -0.612438 1.076508
0.131414 -0.514052 1.010814
0.137823 -0.852885 0.960585
0.254863 -0.110805 -0.556220
0.064241 -0.820063 1.056803
0.201443 -0.844957 1.003151
-0.237111 0.986815 -0.207365
-0.618857 -0.197119 -0.729113
-0.396408 -0.251911 -0.727125
0.106756 -0.274467 0.935853
0.076175 -0.507204 1.023845
-0.419165 -0.232990 -0.721637
-0.594756 0.395821 -0.713723
-0.536055 -0.200170 -0.725856
-1.141336 0.565476 -0.729556
-0.212039 0.954628 -0.227392
-0.858239 -0.123994 -0.707277
-0.166359 0.113756 -0.504143
-0.442076 -0.252935 -0.714074
-0.335460 0.214419 -0.641324
-0.727006 -0.171137 -0.732013
0.230173 -0.877231 0.910616
0.200258 -0.546455 1.006931
0.019403 -0.534735 1.007034
0.305492 -0.459812 0.787956
0.203896 -0.838566 1.009645
-0.507997 -0.215374 -0.728542
0.032089 -0.493169 1.013473
-0.262159 0.874163 -0.288751
-0.201194 0.974271 -0.206502
0.088153 0.151469 0.128864
0.017608 -0.624080 1.033547
-0.507557 0.286408 -0.689867
-0.253542 0.881907 -0.298735
-0.198822 0.952030 -0.213129
-0.307034 -0.260836 -0.711305
0.247762 -0.783224 1.093662
0.244119 -0.691684 1.029187
0.094153 -0.880906 0.974357
0.121491 -0.287965 0.915195
0.281154 -0.620057 0.982923
0.261464 -0.861352 0.958477
0.188177 -0.845284 1.043595
0.005634 -0.774989 1.095403
0.175531 -0.882468 0.896194
0.005729 -0.819582 0.987915
-0.443867 0.251576 -0.670878
0.217986 -0.807501 1.046850
-0.928649 -0.087368 -0.713383
-0.209169 0.954691 -0.234803
-0.537679 0.301787 -0.700630
0.107159 -0.856246 0.939578
-0.439730 0.243529 -0.626748
-0.601337 -0.211533 -0.713411
-0.435381 -0.251269 -0.697507
-0.421276 0.263736 -0.626109
0.066596 -0.536928 1.034522
-1.147386 0.567005 -0.710062
-0.554779 -0.214779 -0.706004
0.063039 0.161450 0.097282
-0.524672 0.256309 -0.719231
-0.155477 0.145089 -0.535933
0.212808 -0.396751 0.967665
0.112825 -0.625205 1.076790
-0.446033 -0.240641 -0.716194
0.106431 -0.384683 0.984463
-0.651101 -0.127763 -0.678320
-0.234466 -0.284714 -0.711397
0.336060 -0.736966 0.953823
-0.051179 -0.457469 0.877354
0.041681 -0.517502 1.015491
-0.337520 -0.150768 -0.701920
-0.550320 0.335116 -0.708324
-0.539000 0.303071 -0.699859
-0.287611 0.878775 -0.332190
-0.675924 -0.163476 -0.725476
-0.746005 -0.144381 -0.711822
0.284568 0.153597 -0.476388
0.106145 -0.652003 1.094134
0.180821 -0.924674 0.857136
0.122787 0.107820 -0.078028
0.006730 -0.667435 1.055251
0.117127 0.075492 0.006773
0.056129 -0.873357 0.924432
0.098910 -0.821145 1.058761
-0.401833 -0.240865 -0.728583
0.136748 -0.655710 1.007429
0.054587 -0.704822 1.098136
0.017981 -0.594991 1.031418
0.272487 -0.487363 0.863104
0.112168 -0.834412 1.034362
-1.180126 0.503626 -0.718361
-0.121135 0.062770 -0.471565
0.014683 -0.467875 0.982619
-0.598665 -0.188322 -0.728034
0.030407 -0.608492 1.045864
-0.271487 0.879231 -0.299539
0.052468 -0.656658 1.080972
-0.192472 0.951979 -0.200572
-0.477880 -0.251191 -0.724464
-0.135571 0.101661 -0.484315
-0.771516 -0.164409 -0.717065
-0.038514 -0.364243 0.851088
0.215949 -0.700282 1.088677
0.296769 -0.621745 0.935094
0.066073 0.286626 0.514772
0.285114 -0.564792 0.951964
0.202536 -0.314240 0.913061
0.091929 -0.506721 1.029770
0.149081 -0.792152 1.056923
0.131262 0.094772 -0.010743
0.085273 0.871305 0.204767
0.171594 0.049362 -0.110277
0.043206 -0.326323 0.936503
0.248956 -0.598149 -0.688464
0.199720 -0.252743 0.912199
0.247786 -0.512114 -0.652366
0.271316 -0.619213 0.999681
0.095688 0.792541 0.252084
-0.010817 -0.525454 0.972609
0.291421 -0.429430 0.835890
0.222078 -0.622977 1.014249
0.104771 -0.866579 0.934118
-0.055914 1.016444 0.006630
0.197223 -0.826966 1.035001
-0.003848 -0.687137 1.044788
-0.094804 1.019871 -0.070768
0.186362 -0.619467 1.068580
0.097939 -0.800702 1.075450
0.175239 -0.788496 1.009843
0.315787 0.690354 -0.715568
0.041846 -0.644221 1.070334
0.053020 -0.508411 1.019184
-0.470836 -0.214885 -0.721146
-0.577670 0.323891 -0.710172
0.158489 -0.452169 1.007090
0.274901 0.744212 -0.720279
0.164339 -0.833208 1.009979
0.172234 -0.848537 1.013996
0.039365 -0.599252 1.078750
-0.516446 0.286742 -0.662340
0.099496 0.119193 -0.063097
0.051371 -0.815805 1.037236
0.269933 -0.814898 1.024079
-0.231052 0.539916 -0.588901
0.119560 -0.904735 0.852460
0.110227 0.119702 -0.146233
0.141488 -0.521391 1.031016
0.129292 -0.522517 0.983297
0.073572 -0.839056 1.021625
-1.191842 0.497852 -0.708043
-0.087912 0.071955 -0.464616
0.277808 0.939493 -0.719985
-0.786702 -0.141680 -0.724146
0.106699 0.088525 0.001487
0.210028 -0.538798 1.019945
0.171423 -0.580709 1.053066
-0.828176 -0.025150 -0.725746
-0.295688 0.190373 -0.631517
0.180140 -0.604806 1.101068
0.067290 -0.585739 1.055535
-0.493844 -0.219403 -0.713550
0.080461 -0.627504 1.034941
-0.270923 -0.182016 -0.715014
-1.061746 0.007404 -0.706118
-0.474687 -0.236443 -0.709948
0.018373 -0.651465 1.056066
0.142497 -0.665014 1.051883
0.268510 0.766150 -0.709834
-0.286066 0.260077 -0.581329
0.106242 0.911754 -0.707119
0.222040 -0.332073 0.956758
-0.034332 -0.585295 0.955126
0.294682 -0.529757 0.906437
0.198634 -0.581016 1.046598
-0.009796 -0.623054 1.014048
0.173818 -0.546316 1.045484
-0.415855 0.228742 -0.613175
0.040645 -0.611312 1.063532
0.055299 -0.559781 1.035249
0.103191 0.130112 -0.058795
-1.046800 0.017987 -0.698649
-0.842467 -0.119833 -0.708609
0.091616 -0.655407 1.053357
-0.051044 0.470872 -0.643896
0.273673 0.806898 -0.727795
0.094507 -0.589891 1.035320
-0.481151 -0.230009 -0.698318
0.304023 0.108540 -0.513125
0.077424 0.064796 0.795018
0.277983 -0.506601 0.939854
0.113280 -0.134224 0.805232
0.389692 0.447246 -0.554479
0.234190 -0.406109 0.953507
-0.001504 -0.401870 0.930620
0.255900 -0.832074 0.995154
0.052751 -0.505884 1.018516
0.111169 -0.038529 -0.412621
0.262728 -0.228723 -0.607994
-0.970390 -0.121160 -0.695122
0.274118 -0.348736 -0.611450
-0.316205 0.566916 -0.725429
0.035699 -0.876270 0.915686
-0.053292 -0.668673 0.943005
0.187078 -0.597923 1.061723
-1.134587 0.093382 -0.702845
0.078816 -0.424998 0.996355
-0.676785 -0.168559 -0.728907
-0.448635 0.247583 -0.629143
-0.656362 -0.181783 -0.734380
0.137695 0.079864 -0.038398
0.282753 -0.497540 -0.587981
-0.192224 0.100797 -0.501849
-0.031493 0.483796 -0.629470
0.053515 -0.671356 1.085667
0.194864 0.123795 0.394240
-0.362632 0.198447 -0.587534
-0.534233 -0.215265 -0.699085
-0.447186 0.254568 -0.669756
-0.310782 0.191052 -0.579002
-0.242467 0.900948 -0.289955
0.607850 0.564378 -0.596410
0.133860 -0.527645 1.044079
-0.193335 0.101574 -0.508026
-0.532545 -0.218657 -0.706321
-1.076618 0.631899 -0.734454
0.142940 0.080022 0.153225
-0.294435 -0.271248 -0.716794
-0.294188 0.160495 -0.555903
0.610608 0.515409 -0.593074
0.088451 0.104058 0.002003
-0.547719 -0.204896 -0.724207
-0.300515 0.840186 -0.373291
0.120172 -0.688431 1.110639
0.154657 -0.434461 1.072601
0.187439 -0.010517 0.444524
-0.297387 0.548091 -0.557428
-0.785655 -0.138144 -0.710582
0.073472 -0.740756 1.112164
-0.784379 -0.137792 -0.703385
-0.200589 0.142845 -0.559645
0.123210 -0.844311 1.007415
0.126653 -0.572871 1.060213
0.147225 -0.345189 0.578074
-0.846761 0.814105 -0.731756
-0.225162 0.558135 -0.579338
0.058701 -0.006915 0.806082
0.029563 0.054199 0.668362
0.092356 -0.480985 1.019602
0.089609 0.106763 -0.078587
0.106545 0.005988 0.691650
0.028808 -0.514248 1.005564
-1.065531 0.525802 -0.711948
0.019095 -0.535721 1.007367
0.065994 -0.502155 1.020974
-0.871714 -0.245967 -0.719558
0.251579 -0.080793 -0.580774
0.124333 0.275933 -0.452131
-0.123288 0.493316 -0.627045
-0.053941 0.426680 -0.658212
0.052846 -0.821726 0.978370
-0.054042 -0.544671 0.890671
0.131051 -0.473698 1.006213
0.053457 -0.573911 1.047888
0.146467 -0.331666 0.960218
-0.797011 -0.140417 -0.705807
-0.329265 0.179624 -0.572361
-0.622369 -0.178787 -0.716848
0.129683 0.095193 -0.014368
0.241808 -0.813998 1.058328
-0.029223 1.019476 -0.737432
-0.127424 0.062523 -0.469175
-0.310764 0.200606 -0.567210
-0.773366 -0.031522 -0.701936
0.235565 0.226231 0.392935
-0.431314 0.255470 -0.667227
-0.562997 -0.211674 -0.702725
-0.523488 0.291622 -0.666347
-0.249563 0.837016 -0.328318
-0.006907 -0.692238 1.044704
-0.235783 0.125500 -0.526024
0.272929 -0.549079 -0.692611
-0.507874 -0.218671 -0.699032
-0.273152 0.843736 -0.343710
-0.803033 0.805274 -0.696914
0.170907 0.051690 0.142897
-0.276039 -0.271578 -0.717388
-0.306794 0.167296 -0.560509
0.085160 0.097623 0.005549
-0.621770 -0.198235 -0.712733
-0.200587 0.973704 -0.202100
-0.145991 0.498631 -0.609076
0.200930 -0.355339 0.621315
0.290498 -0.675273 0.952870
-0.708186 -0.176228 -0.730179
-0.532359 -0.222426 -0.715787
-0.231203 0.176730 -0.552526
0.105419 -0.662989 1.086857
0.142157 -0.312399 0.510812
-0.122972 0.061367 -0.474847
-0.358326 0.671363 -0.544355
-0.189580 0.100332 -0.595316
0.105346 0.275449 -0.528789
-0.085996 1.049924 -0.708408
0.172134 0.505628 0.481995
0.082994 0.349317 0.524694
0.063268 0.037168 0.254869
0.262489 -0.769378 1.085487
0.250088 0.204335 0.408998
0.250730 0.180084 0.272765
-0.058162 0.217146 0.533906
0.286169 -0.701200 -0.742699
0.198956 -0.019572 -0.410533
0.057781 0.154978 0.072888
0.266929 0.139194 0.302548
0.141377 0.244102 -0.459210
0.071786 -0.220227 0.910232
0.235115 -0.677649 -0.720902
0.136950 -0.050091 -0.499683
0.205416 0.009046 0.255837
0.017097 -0.757328 1.104620
0.053174 -0.732720 1.103839
0.068588 -0.746704 1.117334
0.048016 -0.825417 1.088701
0.136782 -0.005473 0.913508
0.124707 -0.752187 1.135579
0.231827 -0.231737 0.886930
0.207571 -0.231413 0.892607
0.224366 0.297117 0.645746
0.197601 -0.721534 1.087567
-0.000576 -0.773827 1.091563
0.228854 -0.245028 0.874505
0.120317 0.012309 0.918425
0.278575 -0.478755 0.838452
-0.027732 -0.834197 1.001351
0.188380 -0.248620 0.916420
-0.014752 -0.779012 1.077302
0.245016 -0.841395 0.923092
-0.043086 -0.781601 1.012381
-0.045801 -0.288357 0.792158
0.129725 0.008579 0.922403
0.007064 -0.738604 1.066909
0.247347 -0.707949 1.068018
0.230692 -0.734129 1.088012
0.123377 -0.039170 0.862977
-0.026140 -0.750255 1.038013
-0.022268 -0.499962 0.926637
-0.047970 -0.581796 0.891306
-0.048420 -0.504891 0.860771
-0.047850 -0.147061 0.772166
0.302207 -0.662515 0.852651
0.194508 0.343111 0.651485
0.194086 -0.762868 1.089076
0.262879 0.277249 0.608828
0.175859 -0.650043 1.073028
-0.005945 -0.273686 0.818080
-0.024912 -0.366301 0.836797
0.240049 -0.792503 1.076493
0.129417 -0.050101 0.838291
0.106089 0.009751 0.908268
0.279774 -0.376035 0.733707
0.079171 -0.298218 0.939944
0.199427 -0.716509 1.106228
0.295548 -0.689923 0.976943
0.248996 -0.874439 0.863984
0.052494 -0.815961 1.045493
-0.013419 -0.424953 0.932382
0.190123 -0.851195 0.807974
0.174942 0.282235 0.562806
0.050284 -0.363856 0.954257
0.291649 -0.794816 0.987462
0.094689 -0.657517 1.094084
-0.013243 -0.304438 0.868505
0.190956 -0.749753 1.129233
0.250695 -0.762703 1.076849
-0.046240 -0.812063 1.009395
0.191257 -0.708601 1.105486
0.272161 -0.266053 0.802491
0.238857 -0.885971 0.884103
-0.028898 -0.773422 1.024858
-0.021224 -0.776138 1.069389
-0.046572 -0.397754 0.842090
0.158106 0.349231 0.666562
0.123703 -0.795271 1.092492
0.144242 -0.227862 0.907070
-0.040558 -0.502001 0.893267
0.273953 -0.803193 0.932390
-0.018582 -0.342699 0.667426
0.292404 -0.824999 0.917296
0.022407 -0.230508 0.889661
-0.042282 -0.824692 0.894866
0.090730 -0.704319 1.110995
0.310406 -0.674475 0.951909
-0.036002 -0.848213 0.962270
0.121177 -0.022514 0.879121
0.044590 0.332961 0.647925
-0.034251 -0.452941 0.897626
0.249319 -0.860980 0.956245
0.201454 -0.881834 0.857357
-0.029875 -0.554164 0.967278
-0.027305 -0.293834 0.849865
0.024018 0.297002 0.665859
0.131909 0.351918 0.664153
-0.034111 -0.816628 1.027248
0.109940 -0.039326 0.824543
-0.016630 -0.815996 1.042056
0.291535 -0.578830 0.802295
-0.012471 -0.342744 0.897030
0.019422 -0.854022 0.978716
-0.040824 -0.327347 0.751157
0.135088 -0.266300 0.934957
0.292862 -0.696253 0.971993
-0.040470 -0.300219 0.810884
0.267832 0.063878 0.298472
-0.064095 -0.194381 0.674906
0.260628 -0.817628 1.052956
0.276210 -0.848069 0.981733
-0.026375 -0.787593 1.059894
0.286303 -0.829552 0.999049
-0.010401 -0.256931 0.825840
0.187278 -0.257999 0.917067
0.133127 -0.870843 0.800782
0.146911 -0.026794 0.841812
-1.186749 0.153859 -0.704013
0.250035 -0.849177 0.877247
0.290018 -0.633528 0.920038
-0.002733 -0.322911 0.623931
-0.038989 -0.689081 0.879125
0.268753 -0.843651 0.990731
0.259480 0.183989 0.296084
0.107644 -0.114789 0.865559
0.030551 -0.129601 0.847602
-0.052604 -0.799236 1.017193
0.042741 -0.323003 0.934949
0.218570 -0.867112 0.822912
0.163919 -0.225201 0.904130
-0.055664 -0.732370 0.969043
-0.012807 -0.768685 1.026702
0.286259 -0.547932 0.945086
-0.035970 -0.835207 0.883754
0.294280 0.299901 0.559289
0.082618 -0.208812 0.897347
0.014657 -0.857269 0.889365
-0.043913 -0.344399 0.742949
-0.022754 -0.764993 1.028147
0.187411 -0.231083 0.904918
0.116784 -0.756348 1.137144
0.125339 0.467475 0.464932
0.238502 -0.256881 0.883607
-0.044893 -0.261955 0.789988
0.117212 -0.044499 0.847603
0.108163 -0.793352 1.083611
0.115748 -0.759581 1.120258
0.026789 -0.728911 1.098537
-0.002132 -0.783584 1.053555
0.272625 -0.694407 1.032667
-0.041256 -0.301912 0.807504
0.007366 -0.717197 1.075659
0.102967 -0.709347 1.110880
0.064019 -0.263026 0.910137
0.294507 -0.312391 0.822235
0.110774 -0.002776 0.908001
-0.027579 -0.820193 1.027161
0.268667 -0.849547 1.038240
-0.002267 -0.672442 1.044836
0.075579 -0.762233 1.128949
0.277049 -0.829231 0.894714
-0.080373 -0.845240 0.993661
0.245966 -0.324131 0.849142
0.009445 -0.871665 0.832483
-0.000649 -0.238721 0.868813
0.216833 -0.290116 0.900760
0.219631 -0.798922 1.081161
-0.041774 -0.221314 0.816625
0.162163 0.546330 0.443374
0.109235 0.786496 0.297796
-0.062641 -0.257041 0.732755
0.034491 0.969003 0.115280
-0.004378 -0.302127 0.885450
0.242985 0.110076 0.315351
0.282237 -0.831670 0.969638
0.129275 -0.747983 1.141767
-0.007254 -0.618853 1.010770
0.258267 -0.699508 1.056428
0.267295 -0.845002 0.984668
0.294233 -0.296215 0.802207
0.072388 -0.859168 0.837211
0.135308 -0.028191 0.829505
0.198623 -0.283994 0.920900
0.094729 0.602793 0.384832
-0.010672 -0.453707 0.785268
0.072393 0.520290 0.468192
0.066725 0.402996 0.514727
0.120329 0.152134 -0.299478
0.273200 -0.852289 0.969764
0.121184 -0.779354 1.131480
-0.035259 -0.655199 0.957312
-0.011493 -0.803951 1.058764
-0.020562 -0.558104 0.976186
0.208071 -0.236286 0.894507
0.073920 -0.219233 0.917632
0.130762 0.727923 0.317435
0.111770 -0.767595 1.126151
0.279761 -0.319188 0.789454
0.278022 -0.423246 0.904625
-0.006306 -0.554556 0.813525
0.131313 0.125524 -0.151233
-0.049472 -0.383119 0.772924
-0.054326 -0.744990 0.909088
0.237061 -0.773231 1.089756
0.147982 -0.806128 1.134414
0.051452 -0.746523 1.102546
-0.021286 -0.310096 0.871242
0.182497 -0.768208 1.129201
0.209788 0.323637 0.625972
0.285320 0.267863 0.616943
0.144740 0.310161 0.705043
0.031953 -0.251930 0.897691
-0.053565 -0.825696 0.979273
0.280764 -0.567509 0.967185
0.150016 -0.766746 1.121046
0.295354 -0.587288 0.933324
0.066933 -0.261564 0.921172
0.019177 -0.260561 0.871557
-0.066876 -0.234419 0.668717
0.110616 0.143038 -0.316812
0.206177 -0.300396 0.937664
0.097746 0.607759 0.393646
0.083390 0.479900 0.471244
0.136438 0.115186 -0.050575
0.254683 -0.548370 0.991302
-0.053521 -0.357689 0.818784
-1.179401 0.119398 -0.724073
-1.169504 0.124902 -0.706556
0.103683 -0.086935 0.866135
-0.064062 -0.184803 0.723420
0.007480 -0.395264 0.939978
0.090618 -0.792623 1.118190
0.284500 -0.784506 0.970991
-0.019140 -0.853248 0.940365
0.128077 -0.776909 1.132378
-0.042658 -0.816462 0.927389
-0.050323 -0.828011 0.945250
0.254431 -0.754658 1.072499
0.305266 -0.823856 0.987817
-0.021478 -0.543566 0.951301
0.285777 0.266515 0.458982
0.312055 -0.787067 0.996656
0.290879 -0.725772 1.006752
0.046792 0.935947 0.145310
0.274441 -0.811337 1.045725
0.177265 -0.718712 1.123436
0.007037 -0.297922 0.898562
-0.030040 -0.263073 0.811818
-0.018171 -0.299586 0.652062
-0.038006 -0.842039 0.988083
0.090536 0.110303 -0.167644
-0.021059 -0.478063 0.834688
0.270820 -0.752599 0.975169
0.295382 -0.500989 0.897894
0.082610 0.326407 0.510984
0.290910 -0.510866 0.916044
0.136311 -0.892424 0.823826
0.167175 0.099003 -0.303503
0.148810 0.170021 0.366945
-0.040398 0.265736 0.533285
0.165427 -0.693254 1.107044
0.213592 -0.910761 0.882783
-0.032263 -0.834061 0.981470
-1.228094 0.358491 -0.726754
0.270123 -0.543409 0.967047
0.203680 -0.896075 0.869462
0.260712 -0.812743 1.074555
0.144452 0.087769 -0.323184
-0.037440 -0.476515 0.833101
0.246813 -0.874721 0.917643
0.234760 -0.298265 0.907962
0.152584 -0.228467 0.914070
0.260243 -0.403560 0.887763
-0.046482 0.991082 0.013291
-0.423335 1.016642 -0.701555
0.314642 0.239029 0.582767
0.285760 -0.472320 0.913786
0.225253 -0.787138 1.096855
0.172856 0.124016 0.296965
-0.036096 -0.239723 0.769018
0.150705 -0.677623 1.083216
0.222792 -0.732122 1.057468
-0.030388 -0.818417 0.886439
-0.032612 -0.364262 0.865196
0.060442 -0.898182 0.851304
0.118077 -0.253559 0.927455
0.209606 0.297529 0.677582
0.108969 -0.718499 1.088691
0.146089 0.554732 0.423549
-0.032698 -0.439537 0.897994
0.254186 -0.441016 0.948544
0.286463 -0.533282 0.891338
-0.027668 -0.640738 0.865478
0.253906 -0.420826 0.911976
-0.026122 -0.577526 0.955808
0.209977 -0.314935 0.929028
0.073696 -0.851903 0.976794
0.152916 -0.812533 1.106527
-0.062523 0.994559 -0.025337
0.257773 -0.411919 0.911719
0.235569 0.323924 -0.476783
0.089185 -0.832021 0.982383
0.299051 -0.454657 0.856916
-0.049029 -0.213787 0.653430
0.111756 -0.407963 0.959502
0.131368 0.313136 0.688213
0.135783 0.106059 -0.091086
0.275698 -0.815346 0.991447
0.196210 -0.238826 0.890855
0.264654 -0.690570 1.009223
0.258272 -0.845701 0.975966
0.212699 -0.834093 0.955423
0.006487 -0.317889 0.905794
-0.000149 -0.426648 0.941045
0.151397 0.548725 0.438969
0.223865 -0.403109 0.962062
0.267396 0.141800 -0.416408
0.211099 -0.328121 0.934936
0.139679 0.606974 0.404860
0.104182 -0.802357 1.097244
0.001091 -0.258755 0.860394
0.270820 -0.426870 0.918493
0.239688 0.182651 -0.436940
-0.026626 0.994698 0.051988
-0.028468 -0.170601 0.791971
0.140784 -0.797041 1.100191
0.122958 -0.253472 0.927399
0.198808 -0.665231 1.083837
0.018367 0.983161 0.063801
0.235227 0.326486 -0.483405
0.114407 0.672581 0.351618
-0.003012 0.994514 0.060943
0.291490 -0.684559 0.956229
-0.030056 -0.679105 0.919031
0.253226 -0.319835 0.896684
0.269984 -0.235009 0.861045
-0.832892 0.779464 -0.707595
0.123952 0.144288 0.284249
-0.057092 -0.819336 0.913820
0.187809 -0.241588 0.909175
0.128934 -0.768069 1.174630
0.116772 -0.773233 1.121487
-0.010406 -0.630804 1.018614
0.096976 -0.691953 1.083994
-0.008918 -0.198549 0.854244
0.169714 0.376443 0.474506
0.299905 -0.778945 1.023687
0.035689 -0.763389 1.088740
0.192801 -0.221841 0.915938
0.255733 -0.368519 0.913805
0.279735 -0.495971 0.937009
-0.008635 -0.833217 1.029276
0.128135 -0.306640 0.933501
0.175402 -0.798607 1.105666
0.279084 -0.673851 1.011050
0.186091 -0.244640 0.911147
0.233368 -0.429882 0.962745
0.161056 -0.792537 1.124482
0.212321 -0.685506 1.086262
0.040660 -0.344578 0.945701
0.088045 0.539526 0.448875
0.128669 0.101744 0.208715
0.124384 0.419054 0.496655
0.230526 -0.515119 0.964893
0.096917 -0.776376 1.132827
0.110290 0.694939 0.320176
0.254104 -0.593803 1.011658
0.187816 0.311012 -0.455140
0.244647 -0.285747 0.893669
-0.003993 -0.294836 0.889255
0.054179 -0.271224 0.918997
-0.001988 -0.422809 0.940795
0.052552 -0.299750 0.933857
0.199972 -0.275609 0.922227
0.281018 -0.203776 0.821945
-0.023106 -0.644213 0.922817
0.324196 -0.635463 0.932427
0.252978 -0.062842 -0.470233
0.299624 -0.785967 1.035372
0.095809 -0.057855 -0.470792
0.296671 -0.597937 0.825280
0.105048 -0.652533 1.091809
0.154741 -0.746046 1.133488
0.280581 -0.742513 1.006596
0.207114 -0.848002 0.988047
0.186181 0.554695 0.429845
0.052176 -0.277319 0.916877
0.211197 -0.859520 0.961496
0.291232 -0.640855 0.971040
-0.013632 0.967626 0.057600
0.031698 0.000159 -0.433907
-0.142268 0.999512 -0.119454
0.105932 0.299366 0.692526
0.096616 -0.280682 0.938659
0.254245 -0.132209 -0.492778
0.052879 -0.313365 0.934827
0.104018 0.476181 0.394036
0.116824 0.720445 0.328084
0.132414 0.652348 0.338315
0.192649 0.096400 -0.396216
0.255152 -0.632434 -0.718439
0.248633 -0.130352 -0.495978
0.222107 -0.662815 1.068442
0.055208 0.871619 0.201157
0.210475 -0.415623 0.949052
0.053079 0.145324 0.414862
0.101413 0.338461 0.668233
0.032328 -0.824918 1.000753
0.072943 -0.364897 0.964112
-0.003338 -0.776147 1.045245
-0.033259 -0.333214 0.748449
0.005343 -0.709418 1.037443
-0.033723 -0.291870 0.838089
-0.005913 -0.786456 1.018351
-0.005715 -0.820852 1.042962
0.161780 -0.865731 0.809667
0.285467 -0.722376 1.018490
0.103494 0.547972 0.431259
0.291749 -0.697728 0.970111
0.079957 0.077068 -0.276274
0.006828 -0.260270 0.867417
-0.052783 -0.331463 0.804665
-0.026053 -0.705128 0.945234
0.053935 -0.277534 0.923759
0.093918 0.040473 0.234151
0.076158 -0.793240 1.120722
0.135251 0.574054 0.428112
0.118914 -0.347191 0.966106
0.079782 0.909152 0.177871
0.052726 -0.286474 0.923308
0.028599 -0.431543 0.975067
0.226047 -0.384339 0.950461
0.258039 0.150734 -0.430250
0.146122 0.164397 0.280648
0.014407 -0.295337 0.903357
0.010875 -0.826856 1.074260
0.125083 -0.226503 0.914304
0.158080 0.400275 0.504061
0.020143 -0.261683 0.891551
0.253071 -0.264103 -0.558469
0.248636 -0.191667 -0.520709
0.058542 0.225599 -0.488493
0.071488 0.170896 -0.360019
0.131588 0.092736 0.030529
0.293459 -0.331728 0.798366
0.162059 -0.780605 1.102426
0.231496 -0.006003 -0.428758
-0.007028 -0.678257 1.062616
0.186201 -0.305922 0.940022
-0.021575 -0.262375 0.835078
-0.000367 -0.880987 0.914917
-1.203034 0.195404 -0.696223
-0.040092 -0.698700 0.993775
0.092236 -0.105732 0.873072
0.280364 -0.801413 1.051165
-0.060780 -0.806544 0.951775
0.300478 0.254189 0.564824
0.276244 -0.863185 0.941662
0.281780 -0.288652 0.827008
0.092019 0.092116 -0.281495
-0.055932 0.225873 0.539207
0.002262 -0.271948 0.878181
0.141615 0.122329 0.053120
0.274174 -0.683936 1.026049
-0.046080 -0.597822 0.862208
0.089629 0.103937 -0.277454
0.256442 -0.500907 0.969677
0.298520 -0.340751 0.815404
0.186521 -0.772543 1.105515
0.271037 -0.555454 0.972402
0.254662 -0.361098 0.915489
0.268801 -0.136363 -0.503792
0.009225 -0.284050 0.894483
0.108666 0.115159 -0.227612
0.130821 0.695121 0.333278
0.208035 0.068876 0.309743
0.256039 -0.316363 -0.604775
0.260305 -0.014839 -0.456118
0.083119 -0.253256 0.899368
0.256486 -0.798945 1.059627
0.128961 -0.161800 0.907584
0.054975 -0.311781 0.936144
0.187037 -0.384843 0.972947
0.046790 -0.776684 1.116925
-1.076468 0.031125 -0.719542
0.059266 0.163786 -0.367931
0.070214 0.165561 0.228062
-0.053332 -0.639312 0.931619
0.261682 -0.247395 -0.548837
0.109377 0.267576 -0.439127
0.221440 -0.762126 1.099807
0.117435 0.083961 0.034981
-1.203204 0.439854 -0.710438
0.167332 -0.902229 0.846762
0.017910 -0.490191 0.955958
0.281309 0.015942 -0.448885
0.250442 -0.583538 -0.705589
0.252401 -0.254500 0.850895
0.030605 -0.357887 0.942904
0.053273 -0.348102 0.938624
0.112433 -0.689353 1.112376
0.049941 -0.824944 1.034499
0.048932 -0.676409 1.061744
0.144576 0.604362 0.410832
0.000996 -0.285178 0.865278
0.245788 -0.154590 0.853868
0.073784 -0.401682 0.982921
0.254075 -0.250884 0.729277
0.271395 -0.662330 1.018378
0.087799 -0.638187 1.083243
-1.231374 0.270711 -0.750953
0.045578 -0.109704 0.828749
0.109073 -0.802310 1.156121
-0.013131 -0.204565 0.855425
-0.002594 -0.552075 0.996990
0.217036 -0.356280 0.942626
0.212202 -0.603056 1.052783
0.054685 -0.428559 0.977955
0.058121 -0.245538 0.907947
0.062735 -0.284247 0.924743
0.180196 -0.348637 0.962679
0.254581 -0.662526 0.986305
0.009385 -0.498151 0.997053
-0.058001 -0.681491 0.981907
-1.212547 0.420441 -0.708024
0.045352 -0.727337 1.095888
-1.206451 0.211570 -0.709136
0.223025 -0.267502 0.901878
-1.221889 0.366885 -0.708330
0.199071 -0.402619 0.972553
0.024424 -0.375987 0.956212
-0.040985 -0.379898 0.819546
-1.157208 0.105887 -0.711171
0.252546 -0.388889 -0.610169
0.249068 -0.434374 -0.620642
-1.071750 0.622387 -0.709453
0.263413 -0.301292 0.879105
0.199913 -0.342330 0.949936
0.117407 0.745206 0.314287
-1.102813 0.054363 -0.730003
0.210782 -0.246331 0.899931
0.142909 -0.887949 0.857673
0.078726 -0.470714 1.010994
-1.140299 0.096615 -0.705881
0.140364 0.170639 0.323519
-0.031853 -0.295518 0.807346
0.250700 -0.797304 1.013446
0.297536 -0.586686 0.904424
0.296739 -0.297061 0.788497
-0.049333 -0.296215 0.686882
0.214318 -0.818277 1.006000
0.095587 0.095697 -0.267614
0.014886 -0.803047 1.125341
0.044917 0.934190 0.143701
0.271042 -0.638683 1.004749
0.112742 0.688981 0.351655
0.291548 -0.161804 0.793764
0.257961 -0.661275 1.033072
0.126471 -0.356148 0.949653
0.275191 -0.668764 -0.730715
0.114555 -0.713447 1.119285
0.144567 0.563752 0.421738
0.076367 0.120968 0.309208
-0.036903 0.212434 0.470411
0.223012 -0.510375 1.005140
0.088477 -0.334155 0.956994
0.273568 -0.247595 -0.544110
0.277683 -0.010471 -0.451079
-1.179981 0.449273 -0.720815
-1.163200 0.141730 -0.727870
0.029572 -0.326424 0.918502
0.140207 -0.700149 1.106359
0.223319 -0.436924 0.973751
0.057963 -0.338481 0.947713
0.078405 -0.348984 0.960461
0.106751 0.084686 -0.009846
0.118436 -0.799483 1.096838
0.248309 -0.495282 -0.645177
-0.938303 0.733061 -0.705050
-0.954014 0.041533 -0.742672
0.083927 0.836911 0.250134
0.222066 -0.650907 -0.737867
0.100879 0.769223 0.296604
0.252535 -0.525737 -0.685423
-1.103336 0.055782 -0.704092
0.252413 -0.626413 -0.701665
0.251049 -0.427995 -0.662443
0.272983 -0.590906 -0.707184
-0.003198 -0.624478 1.026265
0.092939 -0.273421 0.933909
0.033672 0.934271 0.121036
0.087175 0.870038 0.231850
-1.043128 0.586685 -0.740490
-1.098548 0.186855 -0.746077
0.221532 -0.571553 1.003236
-0.030954 -0.725225 0.957775
-0.996016 0.692293 -0.705015
0.223069 -0.742953 -0.760518
0.250606 -0.295435 -0.628552
0.119197 -0.364201 0.973800
0.160820 -0.296835 0.944309
0.138335 0.095266 -0.096028
-1.129035 0.067516 -0.711527
0.100132 0.774266 0.264553
0.251363 -0.556267 -0.697645
0.271906 -0.095450 -0.472346
0.280798 -0.382531 0.811125
0.302807 -0.647186 -0.717450
0.252872 -0.528103 -0.676287
0.272858 -0.561554 -0.697711
-1.222363 0.276417 -0.731932
0.018355 -0.882750 0.901142
0.102490 -0.695743 1.112078
-0.014467 0.320780 0.595702
0.114961 0.084022 -0.183334
0.210613 -0.646333 1.069203
-0.023545 -0.699621 1.008193
0.037362 -0.248891 0.882399
0.137938 0.071272 0.009712
0.021462 0.946324 0.133244
0.148086 0.117580 -0.258221
0.292204 -0.513102 0.873399
0.166667 0.399661 0.509348
0.222198 -0.450497 0.979555
-0.083855 1.018210 -0.034590
0.226692 -0.883029 0.894323
0.141782 0.042900 0.256504
0.250093 -0.624297 -0.723321
0.081713 0.117409 0.409846
-0.050027 0.252504 0.578239
0.118956 0.111092 0.050475
0.272999 0.113384 -0.483951
0.268274 -0.333274 -0.579043
0.013328 -0.441964 0.963424
0.230754 0.190751 -0.459288
0.187851 -0.424113 0.937991
0.249340 -0.379131 -0.597472
0.073582 0.876414 0.224387
0.251301 -0.428268 -0.662526
-1.238265 0.374335 -0.707004
0.267767 -0.500695 -0.679670
0.098451 -0.865716 0.900843
0.255235 -0.653908 1.038226
0.221667 -0.812123 1.072706
0.094150 0.069903 -0.218284
0.254632 -0.225541 -0.542504
0.173855 -0.324275 0.952898
0.250265 -0.365936 -0.591518
0.112053 0.733456 0.292060
0.104493 0.787929 0.254935
0.268185 -0.665517 -0.721278
0.264490 -0.208865 -0.516416
0.254156 -0.575865 1.004379
0.108452 0.124100 -0.102401
0.298497 -0.496246 0.881613
0.247734 -0.467587 -0.634090
0.263239 -0.543392 0.979703
0.263731 -0.385825 -0.650610
0.011411 0.203090 -0.430099
0.059725 0.909096 0.158006
0.067644 -0.708370 1.082298
0.113968 0.120397 0.005866
0.251555 0.034571 0.220863
0.135035 0.194470 0.358728
0.420632 0.431906 -0.569139
0.251269 -0.544040 -0.692748
-0.934849 -0.129540 -0.690656
0.031012 0.966241 0.094748
-1.224274 0.320916 -0.708670
0.039294 -0.813769 1.066635
0.266831 -0.294548 0.862107
0.244495 -0.806075 1.047092
0.031399 -0.814522 1.103429
0.298318 -0.495461 0.880916
0.222546 -0.456674 0.981457
0.267744 -0.389927 0.946702
0.012314 -0.828528 1.085151
-0.061927 1.005837 -0.032350
0.030539 -0.507841 1.003912
0.132936 -0.465637 1.016266
0.223346 -0.261647 0.901415
0.018815 0.208139 -0.491416
0.061280 -0.271987 0.920782
0.004364 -0.325941 0.904898
0.160335 -0.360169 0.970901
0.174040 -0.378519 0.992064
0.052382 -0.807969 1.043185
-1.202618 0.216926 -0.729301
0.241060 -0.483767 0.975405
0.105311 -0.810248 1.087409
-0.037886 -0.527862 0.906138
0.186476 -0.486533 1.014621
0.273068 -0.316130 -0.581004
-0.623754 0.323550 -0.716138
0.251954 -0.843323 0.959619
0.283188 -0.376283 0.855224
-1.125125 0.074197 -0.721677
0.105063 0.736817 0.291712
0.084797 0.799275 0.253310
0.246377 -0.701976 -0.726479
-1.107918 0.057211 -0.733346
0.291650 -0.641898 -0.721424
0.280062 -0.688226 -0.735859
0.164831 -0.651654 1.092367
0.097803 -0.827755 0.956862
0.121077 -0.412804 0.993210
0.274946 -0.432111 -0.637593
0.078286 0.872086 0.195007
0.251319 -0.562530 -0.676356
0.134107 -0.346375 0.967960
-0.806552 -0.016901 -0.722060
0.179134 0.309018 -0.516284
-0.020276 -0.692483 1.032749
0.200849 -0.882943 0.896337
0.173597 -0.251811 0.921788
0.089834 0.765363 0.293647
0.211485 -0.430133 0.981198
0.148119 -0.280734 0.939707
0.056461 0.929119 0.144375
-0.287188 0.645944 -0.515437
0.062512 0.915201 0.173837
-0.014310 0.984217 0.073108
-0.109336 0.992793 -0.092734
0.261880 -0.505170 -0.655124
0.068872 -0.411702 0.965773
-0.665455 0.366560 -0.724431
-0.061966 1.006634 -0.023753
0.244615 -0.713699 1.073101
0.081530 -0.232278 0.910833
0.174281 -0.280064 0.931958
0.064660 -0.360204 0.958955
0.056557 -0.055946 -0.473663
0.054460 -0.482651 1.007132
0.233532 -0.435519 0.965289
0.037280 0.942429 0.145205
-1.036997 0.112285 -0.747474
0.186512 -0.409894 0.980885
-0.007740 0.984945 0.061493
0.274250 -0.128769 0.814357
-0.047733 1.016640 0.017523
-1.011061 -0.023534 -0.710304
0.029672 0.944657 0.105134
0.104786 0.169191 0.236435
0.240986 -0.863569 0.887847
0.184128 -0.771280 1.109758
-0.020362 -0.564189 0.978717
0.090438 -0.775988 1.115431
-1.159019 0.107790 -0.734104
0.208919 -0.800525 1.057418
-0.007528 0.285650 0.631878
