-0.262976 -0.671526 0.524836
-0.311428 0.079302 0.685667
0.275568 -0.838214 0.989189
0.048844 -0.273684 0.906470
0.290297 1.077900 -0.345396
0.218139 -0.793322 1.101086
0.008538 -0.561799 1.008888
-0.883902 0.403087 -1.301359
1.248474 -0.824696 -0.801244
0.033546 -0.646057 1.053010
0.107451 -0.829577 0.986251
-0.044880 -0.547306 0.899648
0.134201 0.015904 0.907472
0.291742 0.015907 -0.566020
-0.122049 0.068046 -0.482255
-0.394720 0.272772 0.447164
0.148712 -0.747189 1.141250
0.168825 -0.802710 1.050543
-0.964692 0.052965 -0.734676
1.092965 0.000698 0.485400
-0.693784 -0.953668 1.290927
0.251422 -0.528670 -0.688983
0.286872 -0.361429 0.857377
0.051832 -0.632937 1.066888
0.572744 0.236066 -1.342671
-0.017438 0.300506 0.603376
0.172264 0.309664 0.562569
-0.245590 0.904845 -0.252531
0.444350 -0.932311 -1.087484
-0.043180 -0.569827 0.918069
0.068468 -0.858258 0.946124
-0.133793 -1.138644 -1.058737
0.120391 -0.327775 0.959161
0.277681 0.259033 0.443361
0.260989 -0.532545 0.980748
-0.167085 0.986291 -0.182390
-0.805937 -0.063197 -0.727846
-0.956543 -0.069817 -0.723136
0.065059 0.159009 0.207088
-1.161508 0.125425 -0.705555
0.084558 0.312520 0.453851
-0.370944 1.252353 1.079860
0.381754 0.053847 0.815923
0.555041 1.200636 0.222783
-0.976369 0.453484 -0.989630
0.120318 0.124156 -0.288612
0.102598 0.120163 -0.007124
0.285237 -0.578698 0.788585
0.169487 -0.254412 0.880273
-0.545449 0.973839 -0.718422
0.042429 0.919935 0.169622
0.295994 -0.514709 0.871313
0.695344 -0.993562 -1.095996
0.599394 0.562689 -0.995085
0.208681 -0.236219 0.894588
0.215012 -0.809896 0.994779
0.086158 0.501327 0.460634
-0.054115 0.048387 -0.557728
0.105946 0.750607 0.319809
0.119563 -0.727329 1.066915
-0.198433 -1.122204 0.496004
0.130611 -0.786344 1.117146
-1.119191 0.354762 -0.887127
0.029572 -0.326424 0.918502
-0.788128 -0.132652 -0.713876
0.279995 -0.545801 0.957995
1.224629 -0.621061 -0.481646
0.035859 -0.671287 1.033121
-0.292417 -0.257573 -0.704374
0.015515 1.010326 -0.711562
-1.172410 0.592560 1.173078
0.115264 -0.811647 1.039591
-0.874027 -0.104689 -0.699887
-0.972962 -0.045213 -0.968051
-1.039955 0.474982 0.591323
0.239802 -0.765414 1.096038
-0.008957 -0.792393 0.995830
0.271859 -0.283743 0.856529
0.797426 0.784243 -0.967332
0.262073 -0.704120 1.046708
0.174449 0.051077 0.169974
-0.909015 0.761859 -0.732151
0.029678 -0.572847 1.031741
-0.280748 -0.277809 -0.705817
-0.303883 0.747473 -0.429692
-0.597621 0.374539 -0.718656
-0.038700 -0.264784 0.804938
-0.725276 0.913213 -0.710047
0.900424 -0.177476 -1.131276
0.234951 -0.294438 -0.578944
-0.057732 0.847681 -0.962402
0.779052 -0.246937 0.160675
1.067898 0.404990 -1.258508
0.718037 0.582518 -0.733941
0.064418 -0.885861 0.897088
0.889739 -0.997430 -0.236111
0.013519 -0.629741 0.771779
0.307024 -0.282817 0.782447
0.130457 -0.386077 0.979024
0.022542 -0.517497 0.996074
0.236527 -0.858346 0.901641
0.500403 -0.558327 -1.027721
0.134030 0.096469 -0.133659
-0.293195 0.837338 -0.372929
0.849198 -0.276077 -0.468261
1.096291 1.136151 0.185881
0.297326 0.603111 -0.687558
0.275162 -0.574811 -0.676344
0.806860 -0.930750 0.022139
-0.634236 0.163415 -0.942286
-0.070438 1.007178 -0.026603
-0.038696 -0.012119 0.540372
0.981939 -0.125551 -1.010478
0.782160 0.993823 0.669351
-0.898104 -0.443854 -1.136055
0.750447 0.650041 -0.933103
-0.009255 -0.317997 0.886362
0.277384 -0.361053 0.691494
-0.024735 -0.798339 1.031606
0.126529 -0.875035 0.902590
0.077714 0.491933 -0.668046
0.261682 -0.247395 -0.548837
-0.982379 -0.031113 -0.714408
0.132180 -0.052105 -0.417679
0.282739 -0.668360 -0.718528
-0.047030 -0.626407 0.871123
-0.187227 0.116441 -0.519826
0.106235 0.006630 0.916043
1.017432 -0.950378 0.990298
0.588112 0.556812 1.233793
-0.210128 0.523299 0.169597
-0.048989 1.018632 0.013099
0.128363 -0.694434 1.109045
0.239601 -0.773913 1.097701
0.172113 -0.478054 0.915102
0.099515 -0.850334 1.051280
0.297367 -0.741703 0.960620
0.546230 -0.766369 -1.305710
-0.108199 -0.096034 -1.081262
-0.003102 -0.700490 1.058893
0.058960 -0.837543 0.999626
0.165105 -0.803707 1.081375
0.231153 0.345132 -0.491071
0.184163 -0.446067 0.993755
-0.011676 -0.549125 0.982939
0.053841 -0.879331 0.940330
0.866779 -0.054036 1.294309
0.241087 -0.809108 1.067921
-0.034385 -0.812953 0.913739
0.463053 0.423397 0.941634
0.718385 -0.935437 0.061844
0.174670 -0.442038 0.996494
0.012133 0.255404 0.594637
-0.038189 -0.151505 0.793563
0.261227 -0.569198 0.769423
1.106686 0.614084 -0.192911
0.223130 -0.370719 0.946622
0.009873 1.036935 -0.421261
1.088451 1.156313 0.174741
0.262311 -1.056139 -1.192473
0.154460 -0.767683 1.093066
-1.234019 0.300576 -0.705979
-0.044272 -0.573202 0.928779
0.242639 -0.764434 1.059898
-0.480398 0.335455 -1.149437
-0.573746 -0.220415 -0.712718
0.210422 -0.397745 0.964832
0.133602 -0.881245 0.919186
-0.245749 0.902211 -0.254808
0.204305 -0.880792 0.861597
-0.935293 0.380045 -1.253287
-0.984543 -0.506333 -0.742865
0.029830 -0.713380 1.091221
0.260616 -0.525346 0.774433
0.919485 -1.280152 0.048918
0.275465 -0.351354 -0.644834
0.183958 -0.141749 0.886181
0.082070 -0.387810 0.979343
-0.916544 0.787728 -0.729725
0.015526 -0.436288 0.911136
0.741138 -1.087201 -0.185344
0.216640 -0.786822 1.032979
0.106655 -0.711771 1.104892
0.157760 0.933433 -0.710492
0.053814 -0.884517 0.811321
0.251309 -0.538868 0.992119
0.092131 0.115370 -0.490448
0.298640 -0.756792 1.023081
0.276316 -0.720502 0.833282
0.115523 0.704077 0.345564
0.273157 -0.018759 0.330936
0.232615 -0.298685 0.815421
0.997270 -0.304329 0.751494
0.252583 -0.766748 1.063612
0.126307 -0.400070 0.982255
0.217487 -0.282977 0.952994
0.247734 -0.467587 -0.634090
0.169925 0.053219 0.126541
-0.451519 0.283155 -0.636924
0.121332 -0.180989 0.912969
0.116344 0.781689 0.270949
-0.209248 0.135238 -0.524004
-0.044001 1.006926 0.006651
0.016114 -0.559963 1.021770
0.015025 -0.403412 0.945411
0.032385 -0.251785 0.869060
0.091495 -0.666854 1.095877
-0.090373 0.339572 0.847721
0.271231 -0.492863 0.748982
0.142475 0.131162 0.050553
0.335508 0.210814 -0.813775
-0.768065 -0.161241 -0.726615
0.278924 -0.719043 0.969372
0.055029 -0.410960 -0.812032
0.399176 -0.073485 -1.212702
-0.190653 0.115592 -0.516231
0.125438 -0.049917 0.851916
0.244417 -0.301785 0.899616
-0.568097 1.001912 -0.727290
0.814299 -0.993755 0.067322
-0.687329 0.178630 -1.145415
-0.784061 -0.138068 -0.717357
0.280345 -0.519775 -0.645135
0.281319 -0.500951 0.930859
0.098984 0.105370 -0.139787
1.101969 0.583205 0.149741
0.257131 0.325315 0.620663
-0.017003 -0.568669 0.883208
-0.829186 1.060585 -1.228320
-0.002735 -0.761067 1.094811
0.297616 -0.285322 0.792964
0.253724 -0.518114 0.979737
0.176084 -0.227376 0.917475
0.130947 -0.850561 1.004762
-1.395191 0.545055 0.687160
-0.310004 0.665151 -0.494474
0.257401 -0.268627 0.861591
0.196965 -0.793041 1.109266
0.142201 0.089729 0.040951
0.298554 -0.405369 0.843914
-0.569826 -0.014244 -0.658986
0.111312 -0.791339 1.115193
0.233446 0.311880 0.574711
-0.207991 0.953483 -0.220574
-1.045188 0.158617 -0.674621
0.040021 -0.471489 0.707895
0.295143 -0.354146 0.836347
-0.318904 0.665992 -0.487493
0.051547 0.176342 -0.376638
0.636495 0.440022 0.799689
0.254135 -0.326374 -0.590103
-0.056276 -0.316520 0.731442
0.181737 -0.705603 1.086631
0.249846 -0.621845 -0.699487
-0.962611 1.284850 0.923723
-0.039274 -0.423311 0.739621
0.017076 -0.372177 0.943026
-0.002538 -0.469661 0.960374
0.501199 0.507231 -0.621598
-1.085412 0.050047 -0.731462
1.062427 -0.880785 -0.397341
0.149067 -0.497274 0.996203
-0.031776 -0.659090 0.842894
0.325639 -0.711296 0.867132
0.038248 -0.895857 0.876337
-0.043989 1.016101 0.023855
0.994618 -0.664902 0.002774
0.246552 0.177305 -0.429107
-0.155342 1.042606 -0.733800
-0.434673 0.002132 -0.988119
1.281429 0.354346 -0.964639
0.250859 -0.581583 -0.681926
-0.002332 1.006380 0.056764
0.163155 0.478683 -0.671107
1.036038 -1.192774 1.217251
0.217220 -0.674029 1.076989
0.108313 0.073826 0.433972
-1.233181 0.555980 -1.299568
-0.672223 0.544640 -1.030796
0.118707 0.096194 -0.054474
1.216388 -0.593162 -0.486562
0.781089 -0.498596 -0.395737
0.312879 0.607123 -0.706050
-0.232507 0.958505 -0.239073
0.713726 0.809949 -0.977679
0.264578 -0.737245 1.047291
0.160817 0.942480 -0.707428
-0.043706 -0.623136 0.941800
0.008779 -0.415673 0.948644
0.246803 -0.787524 1.081143
1.350635 0.199341 -0.999284
0.009759 -0.592712 1.015903
0.053125 0.113938 0.265967
1.212849 -0.162249 0.594357
0.270964 0.293956 0.574304
1.013384 0.448075 -1.230367
0.025883 0.291185 0.685802
0.285709 -0.854473 0.878722
0.259791 0.146500 0.290112
0.255523 -0.446497 0.951023
0.134916 0.330992 0.684121
0.224866 -0.863243 0.950419
0.287986 -0.313390 0.721210
0.008868 0.496564 -0.646291
0.054644 -0.248867 0.882493
-0.898599 0.783708 -0.705705
-0.634297 -0.140233 -0.673860
-0.317011 0.692513 -0.488591
0.090951 -0.670121 1.095639
0.290124 -0.514664 0.752813
0.017327 -0.467389 0.976815
0.259740 -0.538157 -0.671566
-1.011076 0.151211 -0.801930
-1.195216 -0.605892 1.116483
0.114555 -0.713447 1.119285
-0.043309 -0.143169 0.780887
-0.793568 0.843653 -0.724610
-1.191375 0.057650 -1.086305
0.230399 0.217003 -0.551106
0.859874 0.962814 0.616068
0.052511 -0.698656 1.099167
0.380085 0.772594 1.065920
-0.322420 -1.112706 1.140393
0.514048 0.504200 -0.641061
0.754230 -1.176361 -1.283178
-1.119977 0.568846 -0.692377
0.902772 0.221279 0.357842
0.059257 0.868393 0.209627
0.811931 -0.578802 0.236163
0.071221 -0.626963 1.075181
0.012684 0.222777 -0.421861
-0.048317 -0.226477 0.804077
1.013712 -0.429351 0.927604
0.279319 -0.319342 0.862438
-0.571899 0.327126 -0.704247
0.228627 -0.849230 0.979450
0.285632 -0.311527 0.723631
-0.429864 -0.322210 1.112999
-0.915213 0.751930 -0.723338
0.265188 0.342488 -0.588743
0.224285 -0.347305 0.864084
-0.972766 -1.234146 -0.805044
0.169379 -0.843323 0.731200
-0.019370 -0.627393 1.003181
-0.360238 1.086071 -0.653449
0.318788 0.828747 0.838279
-0.286866 -0.451475 0.060855
0.050925 0.207163 0.087843
0.146914 -0.050111 -0.550209
0.297198 -0.827284 0.950801
-1.240019 0.338750 -0.728347
0.136828 -0.815297 1.010842
-0.580202 0.339002 -0.709611
0.063262 0.061434 0.267575
1.042717 0.430928 1.241197
-1.156261 0.653354 0.579780
0.179383 -0.363012 0.963197
0.250178 -0.712280 0.718993
-1.132597 0.570519 -0.712313
0.146641 -0.834207 0.977863
0.309116 -0.825873 0.952604
-0.674449 0.695644 1.133271
-0.775409 -0.134449 -0.708357
0.289063 -0.835534 0.983787
0.247318 -0.269760 -0.642600
0.674155 -0.966173 -0.192351
-0.270043 0.151106 -0.577978
0.064294 -0.929955 0.848725
0.250310 -0.195309 -0.521612
0.114337 -0.556711 -0.861235
0.251481 -0.379098 0.923318
-0.293792 0.619584 -0.535413
-0.221877 0.944903 -0.207800
0.432974 -0.310057 1.095306
0.913954 -0.752438 -0.376260
0.057211 -0.422380 -0.981674
0.234150 -0.681668 1.067706
-0.605334 0.986552 -0.409007
0.159512 0.926672 -0.705606
0.257374 0.325846 0.606208
-0.030449 -0.646630 0.821401
-1.220564 0.202154 -0.723133
0.268158 -0.125709 -0.484738
-0.626863 -0.189772 -0.711508
0.106275 -0.620377 1.081090
-0.569112 0.036290 -1.065032
0.132611 0.117186 -0.177403
-1.239421 0.261162 -0.710364
0.243420 -0.337379 0.914265
-1.053325 -0.002235 -0.720275
0.270555 0.742114 -0.711313
-0.900218 -0.079029 -0.703118
0.100132 0.774266 0.264553
0.094580 -0.218246 0.928563
0.842597 -0.229168 0.792233
-0.172773 -1.214113 0.758134
0.220365 -0.013138 0.697647
-0.678406 0.936136 -0.700628
-0.032323 -0.499823 0.764107
0.198032 -0.236271 -0.532336
0.239561 -0.828883 0.991180
0.681474 0.177760 -1.009537
0.363431 0.409458 -0.549514
0.295403 -0.804713 0.977115
1.350548 0.971136 0.698475
-0.845385 0.813567 -0.697949
0.233694 -0.321927 0.889572
0.073943 -0.127155 0.851882
0.266841 0.067052 -0.434364
-0.523931 -0.457937 -0.691969
0.292749 -0.447972 0.871166
0.685868 0.431738 1.222685
1.259832 -1.169007 1.139087
0.068175 -0.239393 0.881419
-0.031732 -0.281856 0.821902
0.093544 -0.825409 1.040947
-0.050752 0.961161 -0.070047
-0.155549 -0.861605 1.147070
0.251192 -0.214851 -0.607738
0.000204 -0.770085 1.085042
-0.148850 0.531323 -0.624285
0.213809 -0.767533 1.086290
0.156483 0.194013 1.064035
0.261014 -0.648623 1.026805
-0.214388 -0.867263 -0.986768
0.097060 0.515939 0.420314
0.264573 -0.861350 0.952980
0.019511 0.991131 -0.718880
-0.306749 0.677709 -0.479207
-1.298607 1.055240 -0.015594
-0.148726 -0.698349 1.162845
-0.515347 -0.471042 -1.052516
0.121491 -0.287965 0.915195
-0.012010 -0.001585 -0.541177
-1.110809 0.094552 -0.746138
0.538444 1.193338 1.064260
0.126140 0.975269 -0.726204
-0.024545 -0.724006 1.019576
0.096109 0.560608 0.442053
-0.961290 0.892404 -1.141134
0.900363 -0.170500 1.145580
0.051879 -0.846072 0.964995
0.082897 -0.255757 0.923593
-1.015476 -0.004603 -0.727521
0.814436 0.399645 -1.147522
-0.068071 -0.262045 -0.855300
0.501977 0.158139 0.760054
0.125212 0.119897 -0.039901
-0.004168 -0.342628 0.901853
0.082931 0.463673 0.476339
0.245699 -0.727087 1.068334
-0.136898 1.275401 -0.561687
0.062396 -0.765349 1.127654
0.283614 -0.002982 -0.021750
-0.208289 0.133073 -0.524700
-0.220611 0.536923 -0.589804
-0.960775 0.224781 -0.018165
0.254306 -0.148283 -0.511522
0.265441 0.203829 0.282586
1.086085 -0.700072 -0.062689
-0.953076 0.886775 -1.150841
0.187326 0.666633 -1.049860
0.279737 0.296590 0.580344
-0.050027 0.252504 0.578239
0.158667 -0.787258 1.111285
0.053895 -0.076688 0.748939
0.503598 0.659747 1.139615
0.702448 -0.524934 -1.172780
0.176081 -0.441687 0.633022
-0.640911 -0.085128 -1.105955
-0.141974 -1.059266 -1.158548
-1.354520 1.075028 0.458233
-0.046951 -0.545303 0.919567
-1.043758 0.006236 -0.719118
0.122834 0.091235 0.020060
0.298474 -0.495901 0.881427
-0.044077 -0.646731 0.882897
0.007035 -0.830818 1.000064
0.271463 -0.614407 0.998010
-1.108978 0.038939 -0.729281
-0.058751 -0.779935 0.926659
0.267075 -0.419371 0.692814
-0.017188 -0.471295 0.924519
0.123529 -0.038405 0.862326
0.218455 0.195760 -0.427139
-0.242106 0.909070 -0.284661
0.286750 0.622765 -0.684879
-0.011144 1.000274 -0.714624
-0.014085 1.021397 -0.722126
0.289205 -0.599985 0.956695
-0.704116 -0.064694 0.484779
0.116572 -0.836403 1.015416
-0.357354 -0.263038 -0.706472
0.106264 -0.567490 1.057240
0.120873 -0.901371 0.831099
0.136375 -0.768429 1.097103
0.142757 -0.821428 1.046264
1.209434 -1.265529 0.384905
0.146873 0.449652 0.406940
-1.213610 0.444057 -0.702694
-0.020306 -0.477270 0.739534
-0.286899 0.596685 -0.546575
0.171178 -0.814766 1.043036
0.071878 0.926277 0.155249
0.083146 -0.627429 1.077130
0.048908 0.338194 0.635997
0.284992 -0.266644 0.815697
-1.051845 -0.890062 0.519750
-0.302789 0.174817 -0.618433
-0.737838 -1.023134 -0.986504
-0.838282 -0.107900 -0.718513
-0.035783 -0.545507 0.938321
0.158818 -0.714498 1.116638
0.806330 1.086198 -0.348375
-0.613544 -0.759136 1.261588
-0.488523 -0.209640 -0.717149
0.248202 -0.252284 -0.545125
-0.047604 -0.830790 0.956823
1.026224 -1.073938 -0.022051
-1.227361 0.252978 -0.719645
0.150012 -0.081529 0.860039
0.131230 -0.492798 1.026011
0.011403 -0.706069 1.074548
0.061732 0.062182 0.147441
-0.515949 0.286339 -0.661968
0.020052 -0.868408 0.943229
0.130800 -0.232784 0.909490
-1.064513 0.476697 0.532918
-0.081554 -0.498007 -1.048714
0.313947 -0.434367 1.314289
0.280190 -0.621241 0.990410
-1.123617 -1.173573 -0.500211
0.158804 -0.416075 0.991102
-0.038192 0.074698 0.692357
0.266176 -0.337122 -0.581682
0.275842 -0.677368 0.956126
0.205873 -0.001163 -0.516486
0.079021 0.041615 0.227956
-0.042224 -0.817605 0.960198
1.034277 -0.445824 1.281848
-0.230377 0.915979 -0.236559
-0.440191 0.477172 -1.252920
0.212835 -0.371883 0.947138
0.181476 0.504169 -0.664818
0.106046 -0.740054 1.118338
0.583426 0.310112 0.747390
-1.218202 0.382085 0.878465
-0.068720 -0.689408 0.863839
-0.039081 -0.745609 0.878871
0.166951 -0.559719 1.051206
0.247638 0.451556 -0.088414
0.284793 -0.722016 1.017424
0.114003 0.423757 0.448429
0.690568 -0.025482 -0.944559
0.272733 -0.840667 0.886319
0.073427 0.153018 0.174826
0.379720 0.431398 -0.587301
0.087420 -0.480590 1.014961
-0.599297 0.385017 -0.725536
-0.167732 1.003804 -0.145204
1.227669 0.270673 -1.279879
-0.896294 0.598745 -1.181300
0.106546 -0.366412 0.974922
0.473065 0.771638 0.080424
0.517787 0.489956 -0.664373
0.124354 -0.233332 -0.741175
0.063145 0.154219 0.267842
-0.107087 0.988246 -0.085617
0.224956 0.541088 -0.691427
0.577695 0.072777 0.296362
0.599300 0.563917 -0.693113
0.008289 -0.364033 0.926253
0.412969 1.150666 0.594820
0.651436 -1.265308 0.296145
-0.039739 -0.849386 0.916691
0.106831 -0.544608 1.049025
1.280786 0.228783 -0.298098
0.262852 -0.542936 -0.680019
1.122042 0.595179 1.260747
0.029918 -0.450683 0.978678
0.297132 -0.383126 0.840052
0.089841 0.114423 -0.032327
-1.001958 0.072484 -1.072528
0.287322 -0.660563 -0.736628
0.109424 0.617352 0.376512
-1.134580 0.040876 -0.912477
-0.051273 -0.272198 0.794313
0.248590 -0.461986 -0.670836
0.165878 -0.669160 -1.010267
-1.167458 -0.567382 -0.774620
-0.269648 1.041458 -0.728060
0.090157 -0.763898 1.133541
1.264753 0.612379 0.306955
1.183400 0.364860 -0.954899
0.276863 -0.628257 0.988552
0.103881 0.100301 -0.144042
0.186416 -0.561644 1.045599
-0.601429 0.984719 -0.707205
-0.158421 -1.325253 -0.400012
-0.932698 0.627310 1.093304
0.162620 0.492332 0.380120
0.222347 -0.322622 0.884501
-0.062227 -0.812429 0.983700
0.134442 -0.211971 0.595908
0.127155 -0.869967 0.924328
-0.042150 -0.558163 0.920995
0.809738 0.419745 -1.060375
0.045700 -0.776356 1.090535
1.346974 -0.523227 0.731626
0.257975 0.157729 0.311441
0.138972 -0.727661 -1.108822
0.164149 -0.613509 1.070362
-0.152700 1.068047 -0.731845
0.252633 0.349572 -0.493077
0.835392 0.143226 1.260279
0.254704 -0.019876 -0.446439
-0.050558 -0.801681 1.013126
-0.028220 -0.752585 0.853910
-0.305770 1.166745 0.001739
-0.056572 -0.747142 0.933336
0.658816 0.577193 -0.688805
0.280208 -0.368840 0.876344
-1.182234 0.072955 -0.926036
-0.479264 -0.238254 -0.731760
0.265226 -0.723727 0.982935
0.141911 0.124378 -0.122400
0.249685 -0.128859 -0.495296
0.013016 0.305235 0.647375
-0.968719 0.281951 -0.919649
0.673014 0.606146 -0.704538
-0.036453 -0.617754 0.961936
0.077599 -0.291111 0.830676
0.116677 0.573986 0.422087
-0.542889 0.972035 0.520631
0.259991 -0.508640 0.723148
0.459171 0.449428 -0.573758
-0.067153 0.840718 -0.361451
0.052989 -0.817401 1.053052
0.263679 -0.372134 0.904530
0.130450 -0.774691 1.129942
-0.016574 -0.974563 0.299973
1.003209 0.384669 1.144468
-0.034290 -0.835610 0.981519
0.215741 0.865272 -0.731594
-0.021384 0.276888 0.566670
0.291080 0.298802 0.542888
-0.936689 -0.532561 0.065670
0.380763 -1.068600 0.947568
-0.372708 0.851224 -1.017353
-0.576956 1.200943 -1.235867
0.702469 0.631141 -0.740310
-0.033323 -0.358788 0.732373
0.382046 0.210217 -1.146883
-0.053133 -0.290002 0.788495
0.261265 -0.265360 0.861971
0.053199 -0.333298 0.947366
0.249908 -0.854727 0.974468
0.020734 -0.307830 0.685225
0.423904 -0.468290 0.025819
0.111372 -0.891358 0.803286
-0.017424 -0.279903 0.851898
-0.029227 -0.703129 1.010252
-0.874027 0.094747 -0.446736
0.067651 0.305166 0.698082
0.139231 -0.693215 1.100075
0.029183 -0.850183 1.048260
-0.051142 -0.498548 0.775721
0.211733 -0.704218 1.094377
0.092863 -0.510782 1.036463
0.256877 -0.871275 0.928911
-0.423983 -0.247513 -0.713414
-0.024170 -0.311292 0.707444
-1.092932 0.026315 -0.697636
0.272471 -0.294875 -0.485914
0.333520 -0.159275 1.249704
0.151271 1.348538 0.728469
0.216410 0.531863 -0.673002
-0.057559 -0.772836 0.919894
-0.357353 0.411996 -1.083284
0.595274 0.556545 -0.683648
-0.017311 -0.330109 0.879361
0.200011 -0.280742 0.924691
-0.108268 1.045354 -0.706386
0.098209 0.613717 0.358914
0.010798 -0.878803 0.875838
-0.728583 0.894903 -0.705830
-0.356052 0.195628 -0.644083
0.211319 -0.840497 1.004855
0.442737 0.446581 -0.644572
-0.058129 1.014940 -0.040919
-0.258228 -0.271913 -0.730323
-0.582198 -1.176815 0.351562
-0.383716 1.049783 -0.714275
0.131368 0.313136 0.688213
-0.028660 -0.839172 0.913075
-0.723519 -0.955394 1.017874
0.105047 -0.860145 0.953190
-0.010401 -0.256931 0.825840
0.167663 0.298605 -0.470293
-0.554502 0.400158 0.456868
-0.784344 0.673013 -0.968907
0.138402 -0.398781 0.989407
-0.307166 0.776758 -0.403400
0.273864 -1.391065 -0.158908
-0.036499 -0.738661 0.866885
0.135264 0.109836 -0.233378
0.093531 -0.344107 0.962881
0.258159 -0.037449 -0.477575
-1.143893 0.235184 -0.945011
0.231907 0.119477 -0.116832
-1.214506 0.281733 -0.730879
0.096917 -0.776376 1.132827
-0.929494 -0.547707 0.108399
0.210630 -0.658893 1.072791
0.030325 -0.500687 0.998711
-1.216041 0.398610 -0.702028
-0.331836 0.790872 -0.402343
0.248166 0.812146 0.804390
0.089814 -0.433618 1.009667
0.381869 -0.627945 -0.916433
0.505766 0.483047 -0.660896
0.322601 -0.423732 0.755247
1.461076 -0.070835 -0.358453
0.064918 -0.471572 1.001284
0.911356 -1.227846 0.093054
-0.021575 -0.262375 0.835078
-0.115545 1.085006 -1.045470
0.344737 0.538743 0.582386
0.241362 0.343975 -0.488763
-0.368182 0.307237 0.565141
-0.038457 -0.299040 0.824492
-0.634436 -0.498218 -1.055123
0.025329 -0.744215 1.100621
-0.514382 -0.211024 -0.728873
-0.447558 0.255238 -0.638657
0.163122 -0.637279 1.087142
1.284779 0.591224 -0.774772
0.044389 -0.544473 1.026376
0.445015 0.792269 -0.758683
-0.903632 0.521230 0.981963
0.107694 -0.440079 1.006428
0.006984 -0.644189 1.043850
0.273300 -0.521913 0.767860
0.098083 -0.862363 -0.318657
0.205477 -0.671225 1.082709
0.212258 -0.764666 1.072777
0.065750 -0.455955 1.002044
0.273756 -0.479431 0.928907
-0.021698 -0.427170 0.921221
0.140031 0.158329 -0.036930
0.130333 0.095537 -0.014029
0.244327 -0.338648 0.859465
-0.585070 0.992111 -0.730897
0.172549 -0.256329 0.921675
0.261864 -0.799811 1.071554
1.056758 1.042019 1.229163
-1.189467 0.442280 -0.709838
0.944540 -0.923119 0.173649
-0.039615 -0.418468 0.869434
0.245517 -0.711647 1.072758
0.675959 0.450131 1.206270
-0.468192 0.780163 -0.981468
0.127311 0.355631 0.479203
-0.159329 -1.119923 -0.293552
0.158650 0.932965 -0.713930
0.110449 0.124296 0.013382
0.165888 -0.652783 1.081990
-0.131416 0.861642 -0.368842
0.360042 0.394858 -0.537029
0.122452 0.414140 0.366436
0.151400 0.930048 -0.705938
0.253943 -0.689698 1.051311
-0.215902 0.953383 -0.209981
0.026370 -0.542565 1.020573
0.167191 0.988769 -0.743858
0.042235 -0.511291 1.012889
-0.830323 -0.127108 -0.732063
-0.418830 1.014951 -0.721749
0.585469 -0.055301 0.260155
0.014270 0.850325 -1.272373
-0.063411 1.012033 -0.014937
0.889322 -1.014218 1.160517
-0.189833 0.514393 -0.632381
0.272143 -0.589147 0.767788
0.259727 -0.123016 0.828032
0.151557 -0.423884 1.002405
-0.497599 0.576465 -0.015156
-0.230130 0.150628 -0.532837
-1.012959 0.697352 -0.736383
0.186445 0.894611 1.010260
-0.058350 0.691251 -0.793967
-0.258802 0.615746 0.369458
1.126071 -0.486186 1.275106
0.253193 -0.305620 -0.578647
0.194530 -0.514214 1.007357
0.222948 -0.576536 1.030392
0.011768 -0.599931 1.013880
0.242301 0.224746 -1.063758
-0.743973 -0.158977 -0.713420
0.210616 -0.872840 0.931592
0.159939 -0.748139 1.128239
0.065070 -0.721792 1.120331
-0.423994 0.272868 -0.612447
-0.417232 0.281737 -1.333645
0.412490 0.455783 -0.576511
0.485279 0.501252 -0.610438
-0.939732 0.741650 -0.712220
0.175701 0.052229 0.143267
0.229174 0.978691 1.030784
0.219957 -0.003556 -0.422234
0.278639 -0.578924 0.967095
-0.425760 1.040425 -0.703729
0.263705 -0.634859 1.018079
0.172398 0.972066 -0.743590
-1.059656 -0.272565 -0.334754
-0.317611 0.674513 -0.474525
0.118431 -0.748164 1.107602
0.220762 -0.332591 0.901569
0.724945 0.578323 -0.718900
-0.575318 0.102987 -1.138079
0.080256 0.371293 0.524727
0.227712 -0.689020 -0.713009
0.280309 -0.885090 0.957720
-1.067644 -0.456301 0.212818
0.022905 -0.352933 -0.950980
0.286177 -0.775242 0.881651
0.307290 0.133857 -0.544259
0.041543 -0.262490 0.908336
0.275231 -0.348755 -0.643199
0.060350 -0.353478 0.910846
0.151647 0.240889 -0.541006
0.257619 -0.030632 -0.508239
0.050535 -0.888437 0.868930
0.781011 0.278994 0.345425
-0.174589 0.990922 -0.165725
0.029948 -0.491123 0.997254
-0.076664 -0.374557 -0.342084
0.097606 -0.232314 0.908979
-0.095954 1.053310 -0.712924
1.278798 0.644846 0.501802
0.129663 0.083443 -0.502469
-0.432253 0.238879 -0.621384
-0.930448 0.373594 0.004600
0.202565 -0.406380 0.974218
0.384180 0.572096 -1.086679
0.000575 -0.498595 0.967440
0.211234 -0.323452 0.933617
0.310573 0.601592 -0.696688
0.121810 -0.174542 0.900259
0.303350 -0.782394 0.921734
1.147040 0.729347 -1.166279
-0.086242 -0.825152 0.829326
0.533369 -0.330972 0.564328
-1.246664 0.768756 1.014542
0.272823 -0.625013 1.004208
0.090389 -0.619182 1.075974
0.288764 -0.794394 1.037696
-0.183821 0.617940 1.280150
0.692148 -0.095620 -0.011463
-0.931431 0.781252 -0.726999
0.285207 -0.348840 0.861036
0.126679 0.092817 -0.023618
-1.141939 -0.866856 -0.546061
0.578415 -0.078883 -1.192423
-0.403837 0.211509 0.989464
-1.177865 0.669880 -1.171753
-0.832672 -1.012071 -0.541780
-0.018118 0.284212 0.657227
0.183545 -0.857914 0.956619
0.340542 0.413345 -0.539502
0.951630 0.055170 0.857482
0.254340 -0.463896 0.958442
0.304227 -0.261161 0.792569
0.414228 0.967545 0.751356
0.106671 -0.302220 0.947189
0.256105 -0.275955 -0.560364
0.337524 -0.917865 -1.082050
0.270211 0.507297 -1.202789
-0.085179 -0.221307 -0.982744
0.895581 -0.178383 0.542280
0.668602 0.052226 0.829776
-0.066097 1.030639 -0.718172
-0.380780 0.858492 -0.967405
0.110426 -0.293024 0.944038
-0.786682 -0.144609 -0.708404
0.260276 0.037281 -0.418547
0.252538 -0.359140 0.720331
0.428204 0.440965 -0.585112
0.303077 -0.254387 0.821601
0.272072 -0.833386 0.927347
0.283091 -0.729980 1.019804
0.294266 -0.317540 0.733904
-0.520119 -0.209544 -0.707447
0.803446 -1.303110 -0.507226
-0.837905 -0.103592 -0.707793
-0.045201 -0.177500 0.788064
0.215480 -0.849560 0.997647
0.274884 -0.341969 0.869932
0.775463 0.624766 -0.743359
0.281057 -0.411050 0.712252
0.168100 -0.677039 1.089715
0.440713 -0.940894 -0.048529
-1.153481 0.287681 -1.216528
0.233089 -0.255936 0.883110
0.195365 -0.847897 0.907508
0.004262 -0.778208 1.074995
0.028753 -0.557198 1.023826
0.348724 -0.025593 -0.785171
0.093821 0.116933 -0.038292
-0.150337 -0.536102 -1.176207
0.002608 -0.481850 1.009078
0.234073 -0.460238 0.976191
0.371270 -0.496907 0.806659
0.021636 -0.506154 -0.978543
0.287832 -0.691902 0.998532
-0.035108 -0.463149 0.899103
-0.121008 1.035669 -0.731339
0.622331 -0.006716 0.164502
-0.288027 0.073744 0.814627
0.159885 -0.762257 1.106872
0.219037 0.543217 -0.697337
-0.318998 0.884365 -0.950386
0.072895 0.145413 -1.087777
-0.295608 0.634537 -0.548487
0.302916 -0.735272 0.902144
0.637340 -1.133694 -0.054747
0.075043 -0.885911 0.891790
-0.808325 -1.169974 1.111923
0.086999 0.835140 0.238929
-1.119560 0.270776 0.418600
-0.251467 0.910453 -0.294704
1.167010 -0.895851 -0.265245
0.018911 -0.566465 1.017971
0.224316 -0.725848 1.048654
-0.110432 0.530977 -0.927885
0.303308 -1.239376 -1.245713
-0.032290 -0.415380 0.758593
0.154473 -0.792030 1.161200
0.107948 -0.005756 0.801732
-0.310062 0.713997 -0.461723
0.710475 0.558075 0.001314
0.237637 -0.211814 0.782950
0.249301 -1.030011 -0.985127
-1.043500 -0.008825 -0.718652
-0.107335 0.059393 -0.474606
0.149562 0.290105 0.695139
0.609166 -0.551849 -1.294019
0.091705 0.091982 -0.041146
0.131227 0.722315 0.321633
0.150129 0.690136 0.291601
0.272444 -0.741264 1.034985
0.291773 0.173872 0.649159
0.287034 -0.639853 0.973228
-1.112817 0.060373 -0.703721
0.114821 -0.722041 1.114820
0.280245 -0.461313 0.921917
-0.017130 -0.782134 1.046049
0.003478 -0.604002 1.023285
-1.236307 0.364907 -0.704250
-0.670428 -1.155923 -0.954269
0.528487 0.030352 -1.263181
0.005802 -0.599714 1.028065
0.038946 -0.774521 1.116850
0.069649 -0.849186 0.924675
0.260971 -0.789722 1.076183
0.296064 -0.810510 0.913650
-0.010970 1.276731 1.212083
0.307754 -0.437105 0.845061
-0.025019 0.935279 0.127426
-0.006666 0.498719 -0.649875
0.116586 0.112111 -0.173943
-0.577319 -0.534908 -1.291383
-0.359662 1.125060 0.412811
0.025931 -0.259093 0.886252
0.059684 -0.866213 1.295141
0.124483 -0.031201 0.878613
0.233866 1.249689 -1.010864
0.058072 -0.668391 1.089404
0.029450 -0.617942 1.050625
-1.094791 0.452562 -0.407015
-0.007128 -0.651896 0.834320
0.840346 -1.118680 0.775229
0.017306 0.194479 0.383037
0.025538 -0.292609 0.908645
0.126967 -0.493697 1.027084
0.238617 0.634951 -0.719021
0.037945 0.991175 -0.712713
-0.095222 -0.556985 0.929378
0.096590 -0.308466 0.944897
0.078693 -0.896351 0.854560
0.306350 0.328514 -0.502324
-0.875534 -0.109114 -0.723101
0.044554 -0.566710 1.035396
-0.025751 -0.316415 0.847381
0.105984 0.749566 0.320119
0.130974 0.615549 0.405837
0.024316 0.957245 0.147246
-0.026207 -0.555314 0.959444
0.070699 -0.543393 0.814058
-0.147287 -0.344422 -0.954807
-0.327234 1.139949 -1.170422
0.164096 -0.864968 0.945543
-1.148014 0.272107 -1.076921
-0.015938 0.199811 0.435762
0.133453 0.194694 -0.209751
0.123766 -0.504104 1.035804
0.114068 0.615924 -1.157373
0.305268 -0.603535 0.926551
0.690148 -0.545686 -1.295205
-0.056161 -0.692803 0.917201
0.765992 -1.188351 -0.305763
-0.474893 -0.245874 0.929014
-0.221072 0.920865 -0.255061
0.692607 0.277605 -0.163064
-0.133831 -1.291379 -0.084131
0.304262 0.595335 -0.710474
0.194448 0.330770 -0.569240
0.275184 -0.483520 0.735129
0.105841 -0.825622 1.031076
0.976889 0.236461 -1.243209
-0.058609 -0.731780 -0.728296
-0.321111 0.768114 -0.439611
0.263160 -0.520990 0.969839
0.291643 -0.019163 -0.573527
0.726559 -0.396725 0.443498
-0.121310 -0.212957 0.038417
-0.239916 0.991404 0.659986
-1.038457 0.030591 -1.225870
-0.018615 -0.547502 0.972538
-0.277599 -0.614478 0.962758
-0.285709 -0.324444 -1.204489
1.298202 -1.174939 -0.335349
-0.894995 -0.089748 -0.707820
0.028641 -0.587756 1.034811
-0.278695 0.880636 -0.301819
-0.550324 0.063538 -0.951828
0.209671 -0.531566 1.019877
0.047871 -0.507285 1.008612
0.231371 -0.385806 0.943911
0.232441 -0.715727 1.027565
-0.119295 -1.000561 0.146545
-0.285968 0.878760 -0.331685
0.091366 -0.314390 0.949176
0.125475 0.554224 0.379208
0.003158 -0.368293 0.907781
-0.038611 0.470602 -0.646179
0.294357 -0.314506 -0.562326
0.296997 -0.383579 0.839633
0.288676 0.037571 0.816246
0.005864 0.984574 0.103510
-0.307197 1.055368 -0.708300
0.166217 -0.467736 1.012259
0.712491 -0.834400 0.638167
0.241771 -0.710098 1.069846
0.114544 -0.752039 1.121257
0.206204 -0.841087 1.008728
0.104318 0.085037 -0.130133
-0.154875 1.088945 -0.747047
-0.153113 -0.184235 -0.705317
0.173023 -0.406886 0.984248
0.092107 -0.505702 1.033033
0.281815 -0.797459 1.061998
0.370814 0.426746 -0.624779
0.091528 0.726098 -1.075213
0.285696 -0.524683 0.886503
0.190792 0.334004 0.647391
1.043029 0.802870 0.871823
-0.168306 0.108885 -0.507377
-0.031586 -0.777213 1.053192
0.137685 0.111704 -0.249740
-0.620344 0.399161 -0.733186
0.271244 -0.670507 1.021492
-0.039822 0.507875 -0.649887
0.486997 0.501961 -0.611078
-0.157972 0.919460 -1.098967
-0.533862 0.002951 -1.235113
1.073074 0.763615 -1.090474
-1.009641 0.422648 -1.168172
0.740455 0.426213 -0.949973
-0.133792 0.071908 -0.577953
0.272000 -0.642032 0.789439
0.024517 -0.464175 0.983294
0.009979 0.997359 -0.733769
0.102616 0.133696 -0.017165
0.269901 -0.734731 0.988145
0.143560 0.095546 -0.135662
0.063538 -0.833029 1.032762
-0.458328 0.286154 -0.678120
-0.584127 0.028033 0.858778
-0.118707 0.994582 -0.114091
0.054410 -0.244868 0.909746
0.198806 -0.324561 0.940900
-0.935422 0.584334 -1.170961
0.189464 0.313788 0.576869
0.140768 0.038731 0.048551
0.017758 -0.425025 0.961594
0.163068 -0.851376 0.976823
0.061240 0.938583 0.136086
0.229035 -0.663471 -0.732180
-0.889604 0.802421 -0.715221
0.250511 -0.448477 -0.667625
-0.031197 -0.485422 0.918683
-0.026891 -0.535402 0.778479
0.142118 0.039312 0.075742
0.539776 -0.076285 -1.183429
0.196239 0.309016 -0.496117
0.019840 0.046026 -0.526666
0.242230 -0.723533 1.073076
0.418346 0.672378 -0.725195
0.241740 -0.752205 1.097425
-0.055121 0.219637 0.513560
0.234978 0.411200 0.629876
-1.018453 -0.003776 -0.724484
0.065420 -0.135152 0.852770
0.125976 0.497758 -0.681054
0.212053 -0.391875 0.962931
0.420696 0.860107 -1.142493
0.197891 0.120993 0.278941
0.278649 0.301111 0.566068
0.125807 -0.708169 1.105899
-0.040988 -0.848629 1.015111
-0.016965 0.273925 0.620364
0.118765 -0.646684 1.031190
0.103900 -0.648689 1.070190
0.451462 -0.943835 0.826575
0.263672 -0.772724 1.084272
0.202252 -0.313546 0.935386
-0.151253 -0.671438 -0.118640
0.145639 -0.695258 1.075946
0.776854 0.603988 -0.741338
0.289395 -0.601394 0.937718
-0.446843 1.012298 -0.724917
0.173550 -0.381992 0.973475
0.253068 -0.551756 -0.674678
0.725795 0.576038 -0.737892
-0.405772 0.226302 -0.662658
0.652682 -0.240909 -1.009714
0.041449 -0.431021 0.981499
0.252111 -0.412933 -0.621803
-1.096056 0.581206 -0.729045
0.361419 0.667036 -0.913170
0.191396 -0.887282 0.894235
0.094232 -0.258488 0.810294
0.245189 -0.765520 1.101875
0.198610 -0.537795 0.978515
0.220170 -0.484742 0.964466
0.788650 1.146830 0.788061
-0.031334 0.528151 -1.240199
0.097636 -0.704869 1.113401
0.126951 0.110225 -0.020981
0.126153 0.120094 -0.012397
0.144980 0.299235 -0.462274
-1.167773 -0.207245 -1.007213
0.213241 -0.565523 1.046858
-0.335567 0.737132 -0.458435
0.161219 -0.859131 0.922396
-1.214504 0.161442 -1.110551
0.014347 -0.286132 -0.232484
-0.027725 -0.326416 0.835128
-0.021573 -0.290525 0.833850
0.245364 0.028841 -0.447724
-0.021298 -0.365175 0.690736
0.089733 0.552726 0.420008
0.339153 -0.655863 -0.777378
0.871926 0.108115 0.689374
0.196128 -0.640018 0.733511
0.105361 0.098087 0.177569
0.535477 0.727590 -0.036552
0.006231 -0.448302 0.963787
0.175104 0.150275 -0.509795
-0.003296 -0.873503 0.869093
-0.076176 -0.559017 0.907465
-0.041544 -0.576539 0.873616
0.303196 0.733547 -0.700665
0.098735 -0.880793 0.905667
0.243986 -0.714905 1.072618
-0.180855 -0.884640 -0.604063
0.006889 -0.630924 1.025186
0.162645 -0.813409 0.981623
-0.111467 1.012416 -0.096577
-0.011518 -0.391970 0.916684
-0.147389 0.753468 -1.068963
0.089105 -0.843069 0.948047
0.191301 -0.842274 0.999543
-0.024663 -0.228779 0.790033
0.169752 0.539786 0.451445
0.788365 0.812817 -0.649205
0.263086 0.016433 -0.502765
-0.037987 -0.259910 0.820309
-0.399648 0.220566 -0.603993
-0.909483 -0.083467 -0.709227
-1.181311 0.252758 -1.022790
0.110539 0.097762 0.294334
-0.299970 0.841763 -0.347989
0.209347 -0.519827 0.966848
-1.148294 0.514857 -0.705683
0.053833 -0.650728 1.076956
-0.036336 -0.422583 0.765863
0.489240 1.226393 -0.337413
0.135927 0.556529 0.433566
0.249607 -0.873784 0.896380
-0.613727 0.956040 -0.730645
0.441653 0.130256 -0.979914
0.241588 0.105249 -0.841516
0.258177 -0.448854 0.940914
-0.351033 0.193267 -0.642591
-0.360567 0.237425 -1.128369
0.042761 -0.629312 1.064212
-0.303169 0.367935 0.793083
0.246769 -0.833319 0.931685
-0.294274 1.065533 -0.720263
0.093698 -0.878972 0.883919
0.218266 -0.859569 0.967945
-0.279250 -0.157632 -1.161549
-0.349664 -0.594508 -0.378496
0.093638 -0.334528 0.959348
0.103621 0.073663 0.018974
0.555078 -0.904214 0.521701
0.270561 -0.293081 0.820698
1.360293 -1.088549 0.193097
0.262633 -0.591805 1.029560
-1.047637 0.359956 -1.134416
-0.123288 0.493316 -0.627045
0.068726 -0.598854 1.054311
0.778762 0.074189 -0.728787
0.296353 -0.472552 0.771201
-0.019224 0.253909 0.231389
0.068311 -0.679542 1.070340
0.265089 -0.500579 -0.648517
0.759377 1.004747 -0.327987
0.274837 -0.602725 0.987488
0.024524 -0.810148 1.063551
0.255210 -0.822058 1.030426
-0.037785 -0.711371 0.989298
0.067104 0.992182 -0.724374
0.145865 -0.553382 -1.259079
-0.001391 -0.347469 0.907901
-0.590165 -0.200202 -0.730378
-0.985676 -0.022056 0.071122
0.033777 -0.671948 1.060912
-0.018445 -0.587879 0.984889
-1.199072 0.454732 -0.715336
-1.025555 -0.173663 -1.285437
-0.298281 1.095641 -1.103089
0.290395 -0.537278 0.784280
0.657193 -0.325657 0.339109
0.120269 -0.386186 0.983534
-0.044679 -0.431450 -0.626975
0.617860 0.566254 -0.667492
-0.017753 -0.332187 0.651639
0.110419 -0.533736 1.044434
0.653675 0.573406 -0.706100
-0.034608 -0.641096 0.987203
0.291478 -0.721604 1.004442
0.255550 -0.541319 0.988433
-0.029161 -0.680525 0.841787
0.131787 -0.060888 -0.811418
0.027870 -0.581100 1.025078
0.335186 0.395479 -0.602069
0.116262 0.112690 -0.198007
-0.944005 0.516799 -1.255188
-0.040386 -0.536075 0.927249
-0.229159 -0.218995 -0.954793
0.996030 1.102878 0.936412
0.260087 -0.638450 1.018326
0.153761 0.629797 0.397219
-0.133474 -0.173381 -1.299759
-0.415855 0.228742 -0.613175
-0.443253 0.062453 -1.113027
0.019169 -1.015750 -1.160859
-0.025689 -0.863261 0.922682
-0.916500 1.223084 -1.170793
-0.281297 -0.042233 0.723526
0.284480 0.415553 0.963130
0.232107 -0.945643 0.808987
0.217815 -0.296389 -0.636277
-1.186108 0.194077 -0.724195
0.239585 -0.324104 0.911103
0.042807 -0.581521 1.042483
-0.020697 -0.990632 -0.993412
-0.668485 0.366566 -0.720375
0.278101 -0.697309 0.822276
0.290699 -0.756736 0.877676
0.125162 0.020648 0.908177
-0.052581 -0.635936 0.932427
-0.147169 0.305788 0.031641
-0.181797 -0.334671 1.215066
-0.359905 -0.669291 -0.462625
-0.085726 -0.380167 -1.076663
-0.359356 -0.239895 -0.706969
0.075237 0.238244 0.713060
0.016597 -0.683947 0.800321
0.106030 -0.069623 0.630985
0.292084 0.356949 -0.512799
0.028214 -0.531834 1.017871
0.022570 -1.160952 -0.377749
-1.052117 0.655966 -0.715710
0.173487 -0.293581 0.938839
-0.007838 0.988679 0.075499
0.192877 -0.438654 0.954709
0.292340 -0.838522 0.974370
0.046447 0.975661 -0.715709
-0.027223 0.987555 0.013530
0.215824 -0.500271 1.007483
0.290453 0.788157 -0.725048
0.685090 -0.718800 -1.219327
0.098439 -0.812076 1.070077
-0.211714 0.131863 -0.534405
0.983905 -0.703688 -0.336144
-0.131147 0.652073 0.297608
0.409955 0.714635 -0.087762
0.054017 -0.648897 1.077502
-0.040185 0.258511 0.589769
0.431679 0.849359 -1.041393
0.041383 -0.832213 1.016054
0.239785 -0.834013 0.978417
-0.038192 -0.366422 0.807916
0.290164 -0.613533 0.960507
0.728807 0.585906 -0.723343
-0.047205 -0.563519 0.909010
0.507544 0.466804 1.059206
0.264656 -0.385761 0.909933
0.255154 -0.650703 1.036652
0.170236 -0.439836 0.997857
0.098828 0.103106 0.057462
-0.694756 1.068781 -1.205664
0.294940 0.061765 -0.808885
0.142455 0.098652 -0.131489
0.221166 -0.713086 1.079895
-0.004811 0.134786 0.449347
-0.492753 1.011104 -0.733003
0.192954 0.493163 -0.667709
-0.820335 -0.915577 -1.292037
0.676628 0.604512 -0.701566
0.611166 -0.559664 -1.232915
-0.114598 0.486367 -0.618113
-0.937214 0.775974 -0.709578
-0.923219 -1.294674 -0.791970
-0.032398 -0.471427 0.910103
0.098981 0.103869 -0.172074
0.014830 1.018726 -0.712235
0.234246 -0.379847 0.942408
-0.055338 0.024792 -0.554593
-0.211693 0.126927 -0.524481
0.216416 0.868960 -0.703605
0.256461 -0.047674 -0.554272
0.077988 -0.831258 1.023673
0.125373 -0.606332 1.067963
-0.757312 -0.158907 -0.716521
-0.321241 1.060861 -0.709272
0.090515 0.265978 -0.425151
-0.975620 0.885414 -0.369478
-1.200755 -0.790063 -1.291296
-0.059020 -0.287064 0.743032
-1.078093 0.547960 -0.903205
-0.383786 -0.269533 -0.715654
0.120547 0.099729 0.074323
0.063006 -0.678463 1.084760
0.224836 0.125589 0.250876
0.929010 -0.342089 -1.224145
-1.175106 0.470298 -0.709189
0.083393 0.848005 0.219518
0.029475 -0.354817 0.941482
0.084961 0.296966 0.647797
0.116241 0.088506 0.013834
0.476729 0.466886 -0.596276
0.977442 -0.176249 -1.024229
-0.986971 0.732374 -0.717073
-0.037696 -0.661946 0.965725
0.158053 0.171641 0.570329
0.078105 0.301213 0.538880
0.115556 0.119531 -0.002066
-0.172622 -0.829856 0.252122
0.265737 -0.399303 0.740595
0.249167 -0.359762 -0.588271
0.416369 0.808642 -0.172891
0.163598 -0.027353 -0.459074
0.090623 0.019394 0.270000
0.001091 -0.258755 0.860394
0.244573 -0.647855 1.044316
1.234468 0.302976 -0.317438
-0.049690 0.045980 -0.555934
1.286613 -0.417564 0.960650
-0.307303 0.604425 -0.536992
-0.231512 0.274590 -0.998663
0.065631 -0.372804 0.964087
0.274252 -0.385154 0.817270
-0.007740 0.984945 0.061493
0.247479 -0.852901 0.965064
0.092977 -0.385423 0.981090
-0.276240 0.575493 -0.586245
0.038908 -0.075217 0.708313
-0.403849 0.221988 -0.607799
0.281974 -0.449803 0.907556
0.280390 -0.704756 0.831269
-0.030360 1.043348 -0.732274
0.231485 0.744109 -1.067038
0.686039 0.642120 -0.723488
-0.039526 -0.304385 0.828866
0.945101 0.153242 0.187348
0.477356 0.182730 -0.788234
0.144620 -0.312628 0.958380
0.274671 -0.597234 0.929097
0.196013 -0.819576 1.023509
0.076323 -0.809620 1.092176
0.129530 -0.174338 0.452653
-0.301682 0.678080 -0.513302
-0.037080 -0.826268 1.010552
0.078196 0.105182 0.170102
-0.167571 0.966411 -0.166043
1.314935 0.727469 -0.162062
0.684303 -1.111012 -0.140836
-0.085219 0.195387 -0.894972
-0.037776 -0.315610 0.711951
0.129743 0.143012 0.312547
0.112178 0.119718 0.022651
0.053968 -0.213281 0.873717
0.088319 0.493265 0.391752
-0.229418 -0.284652 -0.702216
-0.527778 0.842090 0.925800
-0.252534 -0.790181 1.357385
0.133514 -0.274896 0.937284
-1.238522 -0.402339 -0.158016
0.097803 -0.827755 0.956862
-0.824398 0.835178 -0.715599
-0.377360 -0.254450 -0.707226
-0.021631 -0.243688 0.861012
-0.971092 0.755528 -0.716577
-0.987655 0.711559 -0.706961
0.195093 0.487859 0.207533
-0.527147 0.357978 -0.703336
-0.537353 -0.217249 -0.714929
0.100624 -0.039794 0.847716
0.182365 0.050898 0.256615
-0.028078 0.136603 0.523413
-0.045568 -0.662430 0.949276
0.108962 -0.546622 0.793733
1.011281 -0.582687 0.149420
0.062957 -0.272342 0.564496
0.058528 -0.456838 0.998364
0.042076 -0.351183 0.946172
0.120383 -0.474467 1.021216
0.017154 -0.455868 0.963872
0.073333 -0.879672 0.930721
0.021049 -0.343236 0.928337
0.214615 -0.554066 1.030125
0.000264 -0.382976 0.915325
0.253345 -0.318001 0.885931
-0.007264 -0.714791 1.023888
0.145266 -0.327558 0.949393
-1.006691 -0.018345 -0.713211
0.070180 0.885979 0.208779
-0.667843 -0.185409 -0.706784
0.273669 0.050856 -0.538826
-0.626088 -0.198334 -0.721218
-1.228045 0.387696 -0.699663
-0.283979 0.171311 -0.615306
0.299326 -0.595184 0.922352
0.018221 -0.440598 0.965119
-0.038921 -0.697605 0.984572
-0.030232 -0.846083 1.021927
0.147831 -0.828811 1.035506
-0.007834 -0.865691 0.939101
-1.099771 0.012074 0.887096
0.022984 0.986080 0.097227
-0.024274 -0.997620 -0.751154
0.199689 -0.722593 1.084992
0.200849 -0.882943 0.896337
0.044903 -0.671032 1.038883
-0.047854 0.019221 -0.455373
0.040728 0.484609 -0.677094
0.268950 -0.844429 0.883281
-0.615126 0.972561 -0.701925
0.097950 -0.880826 0.819417
-0.698968 0.318724 -1.063801
-0.802819 0.148388 -1.185771
0.287134 -0.725188 0.970557
-0.018305 -0.555501 0.974987
-0.667161 0.352247 -0.729020
-0.745009 0.549446 -1.244766
0.096329 -0.682727 1.103911
0.245871 -0.865819 0.944966
-0.020078 -0.796596 1.061124
-0.052245 -0.828824 0.920437
-1.186783 0.192128 -0.725329
0.050090 -0.760437 1.123409
0.285492 -0.463208 0.909524
0.244874 -0.512388 0.987781
0.212606 -0.253658 0.804451
-0.010389 0.210467 0.633153
-0.220325 -0.271056 -0.516418
0.121149 -0.723667 1.124008
0.249619 -0.855652 0.937476
0.186762 -0.273825 0.925793
-0.616252 1.145796 -1.210574
-0.490824 0.275919 -0.659960
-0.032337 -0.442126 0.897474
0.296532 -0.727742 0.979586
0.291820 -0.474182 0.901223
0.227924 -0.883047 0.901257
-0.030240 -0.269308 0.810933
-1.051635 0.007240 -0.705324
-0.239439 1.036421 0.639605
0.199070 -0.310913 0.934995
0.088984 0.105164 -0.070229
1.203578 0.597728 0.288561
0.099213 0.039440 -0.056092
0.782969 0.628359 -0.746776
0.331699 -0.737792 0.960988
0.423623 0.220705 1.124680
1.185490 -0.832597 0.657462
0.120821 0.329873 0.474723
0.146775 0.271657 -0.455719
-0.783814 0.849862 -0.706301
0.089609 0.106763 -0.078587
0.025350 -0.675237 1.076232
0.476891 0.501194 -0.651024
0.293589 -0.694762 -0.725394
-1.301998 1.111360 1.296788
-0.860075 -0.154093 -1.225621
0.092287 -0.218900 0.908399
-0.020106 -0.592505 0.988859
0.853884 -0.183859 -0.616323
-0.493844 -0.219403 -0.713550
0.075852 -0.612935 1.062613
0.560296 0.527917 -0.618680
1.174711 -0.825591 -0.951664
0.232700 -0.778918 1.104542
0.238940 0.233243 0.644647
0.974859 1.211974 -0.135700
0.063651 -0.734829 1.049347
-0.777929 1.066126 -0.634012
0.297578 -0.694567 0.971722
-0.701483 0.922303 -0.693213
0.011624 -0.856737 0.966241
0.108225 0.087103 -0.131816
0.502449 -0.883800 0.431187
0.243915 0.639596 -1.048238
0.075458 -0.748227 1.133285
-1.149590 0.324556 -1.225169
0.411358 -1.057653 -1.143857
0.174826 -0.658363 1.093493
0.163187 -0.821130 1.051204
-0.442076 -0.252935 -0.714074
0.360132 0.404634 -0.576639
-0.098674 0.499920 -0.636971
0.107446 0.330924 0.452079
0.165744 -0.805498 1.098561
-1.227332 0.988410 -1.023207
-0.869042 0.532183 -1.269067
-0.890716 -0.076740 -0.727967
-0.596321 0.390173 -0.718783
0.059492 0.336742 0.636267
0.262229 -0.323656 0.886833
0.134906 0.007148 0.912076
0.174144 -0.511071 1.029190
1.031918 -0.194207 -0.470987
1.206787 0.737445 -1.255813
-0.330631 -0.266824 -0.709284
0.125982 -0.624945 1.082353
0.225729 -0.332295 0.910044
-0.958605 0.726571 -0.729341
0.104695 -0.786524 1.126953
0.367744 -0.871160 -1.048275
0.167915 0.354314 0.653436
-0.258244 0.294435 -0.236795
1.230893 -0.142411 0.589364
0.222094 0.140534 -0.439143
0.459130 -0.476865 -1.184541
0.264591 -0.626316 0.998596
0.076288 -0.491182 0.997706
0.117937 0.191858 0.748470
0.048440 -0.891123 0.875561
0.024248 0.290367 0.671490
-0.111825 0.083691 -0.467452
-0.044598 -0.421295 0.863064
0.735160 -1.144085 -1.213578
-1.091623 0.509137 -1.097214
-0.814013 -0.431344 1.250332
0.278957 0.217992 0.462995
0.048283 -0.771321 0.813770
-0.133996 1.067037 -0.712891
-0.086057 0.276504 -0.753862
0.109467 -0.227825 0.913621
0.078798 -0.754616 1.129869
-0.220299 0.560130 -0.605745
0.586206 0.864663 1.028191
0.563185 -1.107718 0.116757
0.231629 -0.339802 0.841565
0.525684 0.124875 -1.143999
-0.416033 0.209466 0.446414
0.247157 -0.364818 -0.590853
-0.999291 1.216262 -0.047437
-0.007025 -0.776239 1.087148
0.145072 -0.501069 1.022566
-0.035053 -0.421664 0.739635
0.259013 -0.335432 -0.624267
0.681936 0.614147 -0.735588
0.147362 -0.912061 0.840770
0.188207 0.314768 -0.479320
0.008250 -0.447002 0.959011
-0.860038 0.806311 -0.703703
1.267122 -0.565309 0.202095
0.067146 -0.747236 1.130101
0.433664 -0.994644 -0.748460
-0.329128 0.192296 -0.578103
0.108333 0.103972 -0.160835
0.268480 -0.315811 -0.604729
-1.244873 -0.419749 0.594711
-0.036715 -0.550351 0.931534
0.115090 0.080680 0.001202
0.251901 -0.558347 -0.697972
0.183634 -0.661441 1.082647
0.286709 -0.532350 0.933977
0.079336 -0.448564 0.999209
-0.087286 1.017224 -0.074911
0.223227 -0.455228 0.981317
0.377679 -0.172651 -1.106517
0.253247 -0.242634 0.858099
0.351298 0.406778 -0.546281
0.107939 -0.744987 1.126985
-0.255889 -0.855935 -1.250938
0.084546 0.717519 -0.875057
-0.233560 -0.996628 0.622337
0.099534 0.121564 0.038452
0.117260 0.697623 0.312085
0.203538 -0.338924 0.945617
0.147599 -0.265475 0.931091
0.120915 0.739757 0.287879
0.211903 -0.672283 1.079545
0.067048 0.175560 -0.371462
-0.026081 -0.771756 -0.234848
0.258797 -0.552911 0.798880
0.105156 0.321192 0.605192
-1.287808 1.071834 -1.227850
-0.156237 0.098450 -0.504926
0.099646 -0.716860 1.122502
-0.281385 0.866750 -0.316273
0.255256 0.012695 0.286295
0.426497 -0.205800 1.226487
-0.633680 0.945466 -0.727953
-0.309332 0.701998 -0.455911
0.837027 0.298152 -0.834322
0.229685 -0.760703 0.800893
0.079438 -0.602473 1.066883
0.356798 0.363152 -1.248029
0.203551 -0.472290 1.001023
1.202372 0.014214 0.969330
0.011443 0.288799 0.664649
-0.500103 0.990427 -0.707597
-0.686982 0.941725 -1.094677
-0.223273 0.963515 -0.214374
-0.207822 0.127017 -0.579607
0.276818 -0.304052 -0.562289
0.792578 0.308708 -1.032650
0.015726 -0.350638 0.835364
-0.616515 -0.185096 -0.706440
0.117139 -0.585093 0.727166
0.289503 -0.885931 0.900154
-0.318824 1.064018 -0.700775
-0.998066 0.694302 -0.735341
0.154915 0.534963 0.370146
0.836308 -0.065258 -0.075960
-0.007032 -0.543046 0.994129
-0.666786 -0.184053 -0.698607
-0.359658 0.073070 0.994566
0.205095 -0.815632 0.999661
-0.084859 -0.210873 -1.083789
0.010577 -0.759667 1.096924
0.117340 0.076417 0.028857
0.289348 0.720634 -1.031462
-0.037589 -0.812881 1.029384
-0.031940 0.230114 0.474349
0.169985 -0.476452 1.002093
-0.611090 -0.207944 -0.705924
-0.148453 0.999486 -0.150317
-0.589504 0.367844 -0.730074
0.346691 0.559520 -0.001209
0.373395 0.557154 -1.201640
-0.245674 0.132824 -0.612339
0.277837 -0.745841 1.059231
0.224281 -0.096986 0.784175
0.202194 -0.759188 1.123353
0.156842 -0.704854 1.086778
-1.242286 -0.379475 0.282170
0.102696 0.074469 0.037342
0.272216 -0.309173 0.860337
-0.149954 0.884489 -0.931180
0.076065 -0.455647 1.017180
-0.973347 -0.503795 0.047942
0.035881 -0.781339 1.081529
0.110078 0.689034 0.329229
0.670470 -0.551160 -1.281435
