0.353951 -1.033450 -0.303851
-0.377467 -0.775570 0.656985
-0.653964 -0.799018 -0.366956
-0.516320 1.111786 -0.370934
0.438040 -0.182939 -0.029128
1.244084 -0.491830 -0.771923
-0.411926 -0.812716 -0.302551
-0.223704 -0.412881 0.899278
0.308085 0.465601 -0.152625
0.802246 0.097162 -0.278150
-0.429299 -0.904395 -0.304253
-0.216396 0.453444 0.561252
0.223036 -0.154758 0.668314
0.346093 0.237617 -0.270363
0.358642 -0.193125 -0.190537
0.364604 0.874642 -0.171458
-0.220805 -0.862111 0.617496
-0.629067 0.757155 -0.279386
0.016732 -0.926417 -0.282144
0.671435 0.278399 -0.785405
0.174159 -0.342999 0.858824
0.100842 0.470072 -0.339142
0.816149 0.018743 -0.513047
-0.006353 0.898992 0.665309
0.259887 0.630576 0.222477
-0.304038 0.912280 -0.300195
0.112049 1.157877 -0.357213
-0.376781 -0.530864 0.890305
-0.190979 0.512601 0.638060
-0.190199 0.435573 0.377716
-0.408968 0.459029 0.007371
-0.297640 1.029172 0.065834
0.106522 0.745377 0.629887
0.034021 -0.422558 0.913374
0.613854 0.147726 -0.244984
-0.437094 0.000062 -0.373761
-0.092572 -0.356200 -0.086705
0.485991 0.750557 -0.309885
0.037801 0.550596 0.252800
-0.375699 -0.796763 -0.678191
-0.296585 0.857862 -0.041511
-0.250593 0.818993 0.324907
0.546984 1.062732 -0.312625
0.620764 0.077642 -0.306448
0.597348 -1.057896 -0.303727
0.206022 0.350197 0.304281
-0.646907 -0.473877 -0.358460
-0.626898 0.630135 -0.285496
-0.692815 -1.098693 0.407921
0.290694 0.509363 0.270125
-0.342837 -0.904653 -0.310839
-0.120217 -0.382214 0.266658
-0.366145 -0.741881 0.781199
0.271421 -0.007681 0.384810
0.125945 1.063280 -0.322446
-0.518891 -0.304437 -0.288497
0.620919 0.421102 -0.302087
-0.632500 0.708251 -0.265170
0.533704 -0.130193 -0.290579
0.583805 1.018357 -0.279930
0.214809 0.674740 -0.689071
-0.321989 -0.129228 -0.247204
-0.022630 0.222634 0.321509
-0.124207 -0.889047 0.629706
-0.121647 -0.249786 0.178325
0.402839 0.193546 0.005690
-0.112471 0.484345 0.263075
-0.072527 -0.836735 0.646976
0.417082 -0.126885 -0.265979
0.251480 0.854225 -0.028998
0.408012 -0.168181 -0.012568
-0.218830 0.355704 0.308477
-0.212792 -0.780364 -0.303836
0.433619 -0.189418 -0.030296
0.559799 1.086650 -0.381827
0.600819 -0.391755 -0.300490
-0.477183 -0.209802 -0.305351
0.219715 -0.437647 0.820134
-0.123419 0.403212 0.654274
0.164324 0.252889 -0.459660
0.292859 0.338021 -0.131164
-0.044656 -0.529249 0.971874
0.386786 0.667212 0.034115
-0.607380 -0.239499 -0.283590
0.373826 -0.634136 0.637763
-0.633526 0.679034 -0.307220
-0.000025 -0.319769 0.054593
0.398753 -0.527023 -0.308577
0.274139 -0.078069 0.181113
-0.415352 -0.054538 -0.288416
0.029125 0.794880 0.680953
0.240483 -0.513790 0.883245
-0.572107 -0.182341 -1.039263
0.145463 0.727090 -1.193120
0.038115 -1.096048 -0.277618
0.182524 0.565312 0.652210
0.306455 0.701803 0.095477
-0.587966 0.560852 -0.279619
-0.208168 -0.536835 -0.310140
0.736514 -0.458836 -0.694543
0.232663 0.807439 0.239110
0.008795 -0.733353 0.634048
0.701035 1.352846 -0.519923
1.249069 -0.195804 -1.245581
-0.349957 0.801624 -0.084115
0.421414 0.292733 -0.002438
0.146834 0.345844 0.333823
-0.157225 0.373910 0.405077
-0.094073 -1.245309 -1.190339
-0.258948 -0.133958 0.018506
-0.387717 1.062069 -0.366448
0.105529 -0.339332 0.251788
0.530935 -0.843926 -0.293998
0.016253 0.650806 -0.637567
0.262030 -0.300461 -0.272218
-0.636511 1.129506 -0.283596
1.062164 0.697291 -0.797449
-0.272604 0.650390 -0.435979
-0.291662 0.252400 0.215312
0.200009 1.043960 -0.299070
0.465607 -0.399884 -1.098102
0.583578 0.901177 -0.295383
1.215359 -0.472833 1.143059
-0.227444 0.061838 0.455117
-0.160936 0.953840 0.062079
-0.331523 -0.401470 -0.300874
-0.075178 -0.428507 0.936146
-0.156832 0.329031 0.327361
0.203439 0.741576 -0.364215
-0.153533 0.831742 0.644192
-0.797658 0.208610 -0.374814
0.491046 0.748786 -0.734853
0.145485 -0.487816 0.851719
-0.604559 0.571077 -0.465767
-0.661721 0.083517 -1.186863
-0.112449 -0.492742 0.735740
-0.275737 0.387937 -0.308363
0.230795 -0.320922 0.430726
-0.281276 -0.747590 -0.300502
0.287343 -0.127598 0.586205
-0.126152 -0.335741 0.164517
-0.356234 -0.893058 -0.310834
0.364437 -0.195033 -0.110880
0.065486 -0.897880 0.652444
-0.340180 0.977738 -0.332937
-0.139148 -0.553345 0.956080
0.353697 -0.690202 0.791771
-0.523793 -0.698480 -0.321271
-0.381985 0.687375 0.012796
0.622289 0.905124 -0.305258
0.212056 0.881579 0.229154
-0.136642 0.400934 0.340012
-0.097435 -0.387671 0.206755
-0.311513 0.599788 0.260385
0.592388 -0.663155 -0.302325
-0.170909 -0.371932 0.881355
-0.174149 -1.035015 -0.307515
0.307015 0.582471 0.093015
0.613443 -0.762339 0.358324
0.151464 0.677323 -0.360058
-0.025841 -0.019088 0.472308
0.627877 0.248126 -0.282826
0.060674 -0.433700 0.947183
-0.338716 -0.515788 0.902875
-0.607001 0.354001 -0.290835
0.765147 0.036345 -0.698825
-0.229140 -0.678985 -0.308553
0.428982 -0.152683 -0.249264
0.061388 -0.427293 0.939418
0.194843 -0.681543 0.669808
0.500276 0.795453 -0.705172
-0.631852 0.794843 -0.399703
-0.418832 -0.632506 -0.335921
-0.031379 -1.031483 -0.271938
-0.472232 1.004906 -1.042843
-1.287996 0.931711 -0.242727
0.243947 0.214220 0.224080
0.544400 0.819232 -0.309378
-0.183629 0.873891 0.357300
0.316968 -0.799977 0.638882
0.598022 -0.453125 -0.295051
-0.256736 -1.339841 -1.161997
-0.634562 -1.212799 -0.783478
-0.603147 -0.470783 -0.299930
0.063419 1.149498 -1.270407
0.151796 -0.318696 0.482881
0.270619 0.940030 0.163377
-0.617814 -0.782568 -0.291603
0.413534 0.885119 -0.099334
0.244543 -0.232796 0.483839
0.173486 0.807771 0.290999
-0.439346 -0.151918 -0.000181
0.287121 -0.205726 -0.082723
-0.132969 -0.425410 0.935005
-0.628331 -0.939569 -0.308074
-0.186918 -0.013641 0.461534
0.578773 -0.695430 -0.270258
0.701758 -0.218377 -1.065165
0.609613 -0.012401 -0.281784
0.409685 -0.659489 -0.901931
0.181737 -0.267565 0.846446
-0.176312 -0.921178 -0.305158
-0.072004 0.906524 0.671540
-0.381326 -0.591013 0.976158
0.395390 -0.917176 -0.308159
0.350413 -0.154041 -0.581721
-1.108518 -1.080438 -0.255904
-0.105440 0.850209 0.603113
-0.077862 0.376030 -0.099932
0.321711 -0.932921 0.649413
-0.134472 0.436048 0.498074
-0.635427 1.123946 -0.292497
1.037850 0.326168 0.383894
0.113378 -0.312092 0.272595
0.358230 -0.713992 0.756796
0.599157 -0.159806 -0.348105
-0.315151 0.613138 0.254064
-0.513024 1.083687 -0.314032
1.094402 0.521224 -0.346563
0.167844 0.570689 0.311120
0.575467 0.415578 -0.260616
-0.186477 0.873129 0.481544
-0.635598 0.582215 -0.247770
0.343890 -0.925191 0.487947
0.373614 0.126741 -0.113761
-0.414597 -0.355902 -0.305933
0.366402 0.750696 -0.291579
0.335812 -0.530460 -0.312609
0.620956 -0.768020 -0.293185
0.326622 -0.151589 -0.093653
0.232741 -0.887416 -0.312349
0.119066 0.352925 -1.054907
0.266167 0.599186 0.208376
0.183708 -0.388308 0.907407
1.221645 0.449579 -0.313422
1.291738 -0.420985 -0.439119
-0.265362 -0.526409 0.907020
-0.612222 1.066377 -0.277933
0.149724 -0.249021 0.447323
-0.244399 -0.946970 0.641696
0.376494 0.545312 -0.133585
-0.624767 -0.762444 -0.340232
0.625537 0.839201 -0.263689
-0.433044 0.448006 -0.303695
-0.531759 -1.056048 -0.300142
0.281600 -0.712028 -0.309686
0.594547 -0.235402 -0.284605
-0.063156 -0.964113 -0.300471
-0.260811 -0.569148 0.990170
-0.014809 0.594112 -0.363523
-0.044036 -0.830317 -0.304940
0.638353 -0.474415 -0.346953
1.228761 -1.189894 -0.208346
-0.353276 -0.180059 -0.092615
0.180101 0.417814 0.345723
0.998938 -0.695928 -0.563047
-0.370113 -0.541960 0.973393
-0.266552 0.717100 -0.059228
0.190535 -0.522292 0.713574
-0.261577 0.018389 0.037388
0.121148 0.639984 -0.123033
-0.227110 0.436815 0.550597
-0.186693 0.622655 0.668986
-0.439814 -1.007999 -0.346148
0.369440 0.847618 -0.057465
0.208314 -0.621616 -0.341633
-0.369955 0.717419 -0.068918
0.132066 0.804331 0.191746
0.355573 -1.032627 -0.312447
0.072712 -0.498003 -0.334770
-0.286681 0.855435 -0.299382
0.081474 -0.443337 0.887724
0.243525 0.901285 0.081856
0.414013 0.251757 -0.289990
0.174226 0.817914 0.647104
-1.038790 -0.265103 -0.335603
0.615567 0.059400 -0.304453
-0.404285 0.105249 -0.292776
0.120973 -0.155493 -0.183247
0.194713 -0.202617 -0.318099
0.372878 -0.878415 0.632842
-0.152849 0.954005 0.180749
0.609573 1.000329 -0.305733
-0.134228 0.310611 0.256777
0.807494 0.358748 -0.676365
-0.084295 0.558216 0.647713
0.621844 -0.792671 -0.302818
0.169614 0.402927 0.405013
-0.101308 0.648040 0.670386
0.131006 0.454580 0.427105
1.022667 -1.087254 -0.933471
0.557388 -0.595995 -0.265451
0.403928 0.607377 0.025785
-0.140618 -0.565491 0.988167
-0.179484 0.828706 0.452835
0.239897 -0.268349 -1.306835
0.524033 -0.129502 -0.323322
-0.613061 -1.119131 -0.275986
0.430766 -0.106249 0.028990
-0.577660 0.178361 -0.286836
-0.064980 -0.734764 0.624440
-0.143702 -0.710894 -0.297301
-0.905504 0.900482 -1.089688
-0.201066 -0.593181 -0.295391
0.621081 -0.992518 -0.306731
-0.402158 -0.078421 0.038095
0.101626 -0.447021 0.703262
0.526906 0.925150 -0.346919
0.064848 0.944011 0.087336
0.015667 0.539846 0.627398
-0.288320 0.013779 0.161065
0.572557 0.992259 -0.265146
0.880552 -0.993093 -1.072742
0.385440 -0.116028 -1.141216
1.340579 0.143000 -0.216730
0.075692 -0.579073 -0.314370
0.290499 0.302406 0.212186
0.465815 -0.727798 -0.323606
0.566059 -0.580732 -0.303172
-0.440134 0.874245 -1.151417
0.465706 1.059903 -0.303207
0.287897 1.103072 -0.298821
-0.405441 0.516742 -0.297961
-1.027977 -0.928232 -1.208788
-0.314448 0.469617 0.244134
0.405318 0.000483 0.042323
-0.408413 0.753124 0.036225
-0.396167 -0.160864 -0.027656
0.226632 -0.774473 -0.306032
-0.170938 -0.855008 -0.302453
-0.616301 -0.187493 -0.305564
0.244661 -0.935763 0.656183
-0.186291 -0.548396 0.966640
0.067963 0.182796 0.186605
-0.567439 0.642920 -0.260923
0.160444 0.484469 0.584724
0.113835 -0.414595 0.659362
0.481129 -0.722917 -0.318201
-0.167794 -0.255515 0.759199
0.307307 0.464656 -0.066788
-0.285218 0.950582 0.156676
0.020406 1.141966 -0.394533
0.014451 0.689381 0.673017
-0.333515 0.551223 -0.281311
-0.156484 0.497736 0.636148
-0.201329 -0.168838 0.717892
-1.118392 -0.264744 -1.085795
0.256336 0.604246 0.023625
0.475594 -0.480322 -0.306328
0.272720 0.526635 0.254867
0.043535 -0.193528 -0.160685
0.626926 0.183820 -0.308643
0.296772 0.324318 -0.186256
-0.046729 0.626000 0.679785
-0.091058 -0.454852 -0.314597
-0.299302 -0.027280 0.040193
-0.251488 0.213978 0.264187
-0.592802 0.458511 -0.321509
-0.408324 0.801758 0.023049
0.849556 0.203081 -1.118732
-0.179608 0.435806 0.568739
0.561441 -0.933085 -0.337949
0.528528 -0.130353 -0.291057
0.027298 -0.388697 -0.931793
-0.380143 -0.569305 0.996571
1.270683 -0.805462 -0.233834
0.422819 -1.024974 -0.298187
0.243096 0.213959 0.224222
-0.061761 -0.421562 0.923181
-0.371560 -0.480216 0.764985
-0.520686 -0.636306 -0.845155
0.286902 -0.152327 0.582623
0.367423 0.420823 0.003194
0.097203 -0.793510 0.623495
-0.604011 -0.094529 -0.281712
0.429898 -0.026675 0.046431
-0.153896 0.865360 0.408620
-0.070798 0.518340 0.669663
0.542013 -0.995562 -0.308135
-0.096807 0.739209 0.198685
0.082514 -0.489088 0.859702
-0.233062 -0.179699 0.732095
0.239782 -0.524643 0.931602
0.292702 -0.033973 0.481870
0.584664 -1.098203 -0.314706
-0.123031 -0.321209 -0.019370
0.173047 0.432759 0.582034
0.125058 -0.178338 -0.292444
-0.055521 -0.352165 -0.146028
-0.039760 -0.757331 0.662540
-0.077033 -0.890452 -1.034351
0.932715 -0.573941 -0.906427
-0.254442 0.787850 -0.100041
0.252433 0.254813 0.225377
0.124862 -1.085016 -0.311330
0.244251 -0.229881 0.553814
-0.184721 0.462174 0.649493
0.295140 -0.058349 0.191749
0.640285 -0.096185 -0.347482
0.305819 0.594630 0.230724
-0.366914 0.444185 -0.789465
0.540856 -0.347709 -0.301147
-0.140688 -0.271996 0.407440
-0.311739 0.013720 -0.892399
-0.427714 -1.284219 -0.868376
-0.550558 -1.039497 -0.313352
-0.594355 0.955807 -0.287206
-0.168021 0.580207 0.241660
-0.062681 -0.210221 0.123734
0.405447 -1.018469 -0.890004
-0.644879 -0.484749 -0.368751
-0.077348 0.954301 0.077428
-0.601456 -0.077714 -0.298387
-0.172857 0.343703 0.337794
-0.051797 -0.550935 0.974352
-0.083056 0.747093 0.193888
-0.631103 -0.971555 -0.264469
0.346669 -0.957486 -0.311607
-0.760983 0.887752 -0.845353
-0.107218 0.529408 0.562453
-0.478738 -1.225852 -0.653397
0.024498 -0.529660 0.976423
0.195899 -0.927933 0.633673
-0.241533 0.078539 0.455865
0.304836 0.704077 0.170926
-0.910970 -1.000664 0.770130
0.136443 0.422620 0.545019
-0.217340 -0.656121 -0.312223
0.700246 -1.178446 -1.016818
0.181297 0.872595 0.509769
0.413707 -0.268844 -0.305462
0.133440 0.358872 0.365793
0.231696 0.773244 0.382462
0.354880 1.116521 -0.317652
-0.542576 0.941741 -0.407625
-0.980399 0.562094 -0.286379
0.238096 0.270769 0.152747
0.273822 0.503648 0.105747
0.116957 0.553554 0.663097
-0.097986 0.495706 0.267200
0.395903 -0.721646 -0.306243
-0.179295 0.867886 0.648604
0.224499 0.502918 0.505944
0.366748 -0.190573 -0.189062
-0.421367 -0.339427 -0.695810
-0.154186 0.436444 0.471655
-0.783545 -0.127602 -0.772730
0.161054 -0.533855 0.957822
-0.518927 0.761146 -0.298079
0.617036 0.965009 -0.266734
-0.263961 -0.471341 -0.297534
0.576231 0.581802 -0.287252
-0.807734 0.882472 -1.048977
0.128603 -0.039577 0.272239
-0.240933 -0.989406 -0.304342
-0.623905 0.844130 -0.300877
0.138358 -0.620747 0.657269
-0.036089 0.494499 0.673827
0.270445 0.496730 0.276189
-0.277732 0.640523 0.129566
0.759962 0.185327 -0.458844
0.804726 0.626073 -0.810767
0.504959 -0.797133 -0.027907
0.144155 0.317705 -0.393241
0.434795 1.184056 -0.029053
0.455406 -0.286648 -0.300987
-0.164921 0.887688 0.173609
-0.195507 0.045145 0.469869
0.287487 -0.530694 0.689338
-0.489607 1.116848 -0.305817
-0.190299 0.259864 0.175880
-0.130088 0.424485 0.258110
0.199445 0.764224 0.376857
-0.241820 -0.122093 0.744807
-0.011122 0.906390 0.671040
0.363726 -0.147414 -0.223684
-0.366852 -0.520845 -0.312504
0.027584 -0.723654 0.644960
-0.322975 0.933278 0.033139
0.613662 -0.994162 -0.278337
0.314011 0.943521 0.094536
-0.605725 0.701593 -0.252348
-0.137612 0.849812 0.417512
-0.238540 -0.451017 -0.315150
0.551256 -0.975102 -0.300280
1.213868 1.238911 -0.910494
-0.360558 0.417391 -0.032389
1.141429 1.116620 -0.798895
-0.413217 -0.126135 -0.263038
0.553533 0.773046 1.104031
0.028044 1.132405 -0.329961
-0.252593 -0.123327 0.743094
0.460095 -0.864159 -0.286885
0.119145 0.239032 0.262801
0.438597 0.443551 -0.292598
1.165724 0.186230 -0.736148
-0.336250 0.314021 -0.293233
-0.410179 -0.135636 -0.271856
-0.613663 -0.564288 -0.331931
-0.163895 -0.240289 0.772945
-0.412575 -0.588810 0.823603
0.278874 0.757971 -0.105284
-0.628122 0.283175 -0.300379
0.270927 0.406834 -0.307942
0.158061 -0.562842 0.687805
0.376475 -0.503399 0.847798
-0.444308 -0.131932 0.021608
1.086142 0.517842 -0.331026
-0.617179 -0.076739 -0.306723
0.572826 -1.025798 -0.299252
-0.480372 -1.030649 -0.507329
0.560266 0.799720 -0.303481
0.536087 0.700866 -0.273826
-0.334347 -0.102385 0.019416
0.610649 -0.442199 -0.285703
0.413670 -0.451432 -0.314097
-0.302158 -1.017388 -0.324904
0.292173 0.292024 0.201961
0.408872 0.686033 -0.292192
0.045259 -0.728027 -0.299054
0.067718 0.448137 -0.007491
0.450482 -0.904671 -0.304910
0.407612 -0.349059 -0.302135
0.258430 0.560543 0.260829
0.277102 -0.598896 -0.947653
0.108056 1.263091 -0.921055
-0.476444 -1.016360 -0.316331
-0.044228 0.671469 0.477403
0.435056 0.039423 -0.291996
-0.579536 0.329440 -0.169161
0.275957 -0.029225 0.467291
-0.013221 -0.252478 0.288015
-0.631257 -0.595017 -0.295221
0.617637 -0.480686 -0.297522
-0.261825 -0.043892 0.023261
-0.326266 1.014135 -0.311113
-0.123405 0.640618 0.670372
1.008438 0.797076 -0.542017
0.156941 -0.265797 0.741979
0.091908 -0.577670 -0.297686
-0.583318 0.848677 -0.419085
0.437030 -0.913471 -0.305450
-0.210853 -0.557322 0.944706
0.344694 -0.127806 0.000400
-0.221705 -1.087195 -0.310678
-0.489888 -1.027430 -0.313609
0.700039 -0.955615 -0.880562
0.150275 0.823381 0.539329
0.258779 -0.551625 0.945680
0.621072 0.792903 -0.304119
-0.045789 0.570217 0.680884
0.575862 -1.099608 -0.311833
-0.219747 -0.390064 0.584194
0.068329 1.308431 -0.729153
0.150426 0.860116 0.387762
-0.618660 0.104462 -0.299949
-1.269642 1.280870 -0.045482
0.622077 0.995463 -0.293758
-0.097639 -0.411515 0.682896
0.417322 0.722692 0.043240
-0.353009 -0.264365 -0.310660
-0.231151 -0.389611 0.785515
-0.627123 0.579032 -0.276575
1.249349 0.419635 -0.495959
0.628766 0.371965 -0.271382
0.596643 -0.905966 -0.271665
0.313289 -0.061338 0.146001
0.627614 -0.113766 -0.289070
0.112084 1.158977 -0.349943
-0.434441 0.481969 -0.007958
-0.309421 -0.769009 -0.716561
-0.726454 -0.412967 -0.954693
0.621201 0.589701 -0.302663
0.363658 0.580199 -0.138991
-0.252723 -0.665954 -1.172419
-0.600681 1.065831 -0.280284
-0.379220 0.872441 -0.080964
0.345983 -0.162814 -0.034873
-0.298352 -0.143325 0.011191
0.439063 0.417999 -0.000201
-1.018262 0.870719 -0.905619
0.234608 0.877631 0.249690
0.174975 0.416900 0.499164
0.204827 0.786142 0.180736
-0.303805 1.034500 -0.310170
0.235401 -0.213802 0.728642
0.195341 -0.870801 0.650129
0.092612 -0.338851 0.259048
0.450349 -0.850542 -0.299185
0.629758 1.033725 -0.288744
-0.168557 -0.156717 -0.302239
-0.561799 -0.875272 -0.326455
0.222891 -0.384930 0.670048
-1.124486 1.063155 1.061866
1.008839 -0.921825 -0.884836
-0.145154 0.870750 0.660726
0.803136 0.495036 -1.206935
-0.036975 -0.413832 0.902459
-0.614027 0.332631 -0.307986
-0.623501 0.489512 -1.243185
-0.296620 -0.961773 -0.309968
-0.604062 -1.049037 -0.315570
0.283150 0.371831 0.244025
-0.301584 -0.097812 0.537133
-0.628119 1.026749 -0.343274
0.291521 -0.061061 0.211420
-0.286543 0.492868 0.261973
-0.251433 -0.954409 0.638038
-0.026121 0.228458 0.411363
0.323081 -0.683147 -0.333272
-0.404039 0.328627 -0.299840
-0.241318 -0.460644 -0.311210
-0.522883 -0.676765 -0.268408
0.177706 -0.098728 0.247103
-0.645915 0.730264 -0.359056
0.585420 -1.084234 -0.300276
-0.211308 -0.407112 0.923648
-0.256225 -0.993347 -0.347274
-0.205538 0.367817 0.263031
-0.183352 -0.656970 0.656643
0.598884 -0.941478 -0.294002
0.422361 -0.056696 0.042973
-0.412860 0.051543 -0.506212
-0.365008 -0.963373 -0.310238
0.106614 0.806714 0.551671
-0.181476 0.593943 0.663458
0.302924 0.580101 0.015873
0.512540 -0.049312 -0.289155
0.145783 -1.038537 -0.297682
0.033742 0.481177 0.243383
0.399208 -1.097473 -0.307483
-0.607173 -0.009300 -0.279543
0.242851 -0.883650 0.645175
-0.215711 -0.430517 0.666435
-0.304432 -0.792995 -0.308470
0.193084 -0.915255 0.654351
0.560829 0.848443 -0.318263
-0.174275 -0.268720 -0.312419
-0.136512 0.815750 0.332780
0.620259 -0.930583 -0.303326
-0.424024 -0.584132 0.818096
-0.540864 0.910031 -0.305614
-1.204862 0.450852 -0.919905
0.145075 -0.366206 0.874970
0.461802 -0.612201 -1.105660
0.183310 0.882066 0.237600
0.533694 0.251148 -1.082349
-0.376217 0.674162 -0.208529
-0.114374 -0.719026 -0.285793
-0.614201 0.027152 -0.272319
-0.013325 -0.808891 0.735495
-0.125144 -0.261760 0.205425
-0.280461 -0.505889 0.887575
-0.631965 -0.520186 -0.260151
-0.263023 -1.126918 -0.318699
-0.280043 -0.664865 -0.309264
-0.339266 -0.949079 0.644162
-0.519517 -0.642122 -0.264778
-0.222281 0.004304 0.364936
0.377902 -0.620960 0.704217
0.331080 -0.920641 -0.305688
0.139823 0.822996 0.410980
-0.608108 -0.594204 0.732689
-0.252479 0.335269 0.265455
-0.002550 0.696189 -0.135171
0.172797 -0.277442 0.484342
-0.243655 0.466285 -0.618782
0.341309 -0.832670 -0.311442
0.510876 0.825625 -0.287224
0.203601 -1.035816 -0.303867
-0.159158 -0.685165 -0.318984
-0.720899 -0.972790 -1.338513
0.322961 0.839526 -0.071011
-0.376233 -0.588114 0.710407
0.083492 0.803468 0.679778
-0.460945 -1.101162 -0.305811
-0.415698 -0.080416 -0.280304
-0.753748 -0.430953 -0.741051
0.640848 -1.185794 -0.714704
0.594992 0.839198 -0.305592
0.561886 -0.353417 -0.320798
0.220359 -0.347003 -0.298932
-0.519719 -0.757116 -0.290198
0.152028 -1.081952 -0.314288
-0.314955 0.622331 0.263241
0.222225 0.605949 0.470884
0.845592 -0.782805 -0.972381
0.087474 -0.339196 0.019319
0.289546 -0.592632 -0.308604
0.050007 0.306054 0.288313
-0.239020 -0.589398 -0.308288
-0.212246 0.306016 0.260450
-0.225125 0.217223 0.259161
-0.224390 -0.431556 0.697436
1.215860 1.253153 -0.107320
-0.178604 -0.288062 -0.304761
-0.360067 -0.540633 0.975027
0.366333 -0.759479 0.634322
1.202578 -0.264115 -0.307457
-0.256765 -0.135410 0.017593
0.586144 0.861227 -0.267468
-0.103982 0.935868 0.144712
-0.360438 0.993080 -0.310583
0.209824 -0.694393 0.662810
-0.628186 -0.789290 -0.265376
-0.049945 0.082066 -0.569805
0.594867 0.254558 -0.302246
0.221918 -0.282100 -0.369901
-0.844586 -0.830414 -1.195056
-0.151026 0.384103 0.429787
0.226155 -0.162880 0.743722
0.238975 0.345750 0.307719
0.610551 -0.599179 -0.302789
0.166924 0.700182 0.366884
0.531719 -1.037881 -0.309974
-0.830060 0.971803 1.106672
-0.122686 -0.390527 0.226719
-0.334216 -0.222537 -0.307285
0.611055 -0.630959 -0.297061
0.216105 0.197654 0.209781
0.122686 -0.555008 0.986628
0.246420 -0.416086 0.931011
-0.060415 0.882425 0.661136
0.539145 -1.099936 -0.328343
-0.607909 -0.544705 -0.246668
-0.222653 -0.556493 -0.309093
0.291237 0.080080 0.176220
0.292207 0.615118 0.235029
0.376050 -0.784504 0.777448
-0.296014 -0.530498 -0.304195
-0.606787 0.477921 -0.282867
-0.195381 0.223051 0.258129
-0.289109 0.268504 0.193849
0.095531 0.829126 0.675531
0.203594 -0.978057 -0.304095
-0.181575 0.715101 0.669036
0.245983 -0.277926 0.411893
-0.550616 -1.023731 -0.299825
-0.036357 -0.977699 -0.274779
-0.245088 -0.822195 0.652855
1.109165 -0.970042 -1.108872
-0.197199 0.905152 0.154475
-0.145228 0.591275 0.241568
-0.420381 -0.968706 -0.306734
0.224151 -0.535063 0.993257
-0.019958 0.640908 0.727411
1.014513 0.755587 -0.593415
0.442540 -0.930010 -0.300637
-0.047884 -0.613674 -0.284283
-0.481620 0.329508 0.062840
-0.218910 -0.285709 0.423060
-1.235911 -0.900966 -1.314438
0.316761 0.797493 0.019932
-0.179059 0.383822 0.424866
0.639391 -0.717676 -0.349015
0.362437 0.285152 -0.022920
0.218652 -0.402111 0.907113
0.216907 -0.393022 0.823480
-0.088995 0.894957 0.606848
-0.547411 0.977419 -0.298297
0.129746 0.802466 0.358600
-1.062980 0.113490 -0.888385
0.590540 -0.287240 -0.273358
-0.200719 -0.558722 0.995560
-0.156434 -0.417143 0.881428
0.196102 0.934894 0.192759
-0.235491 -0.585941 0.685120
0.152138 -0.302563 0.862658
0.219885 0.936349 -0.297531
0.168624 -0.706493 0.663753
0.621175 -1.046615 -0.305910
0.229847 0.945253 0.168145
0.381602 0.175367 -0.294852
-0.340133 0.195090 0.190977
1.021524 -1.202472 -1.030850
-0.182973 -0.464840 0.694138
0.245363 -0.414917 0.898107
-0.143657 0.436166 0.501044
0.409624 -0.903389 -0.306201
0.438121 0.865645 -0.059341
0.023353 0.635279 0.682898
-0.075953 0.928145 0.122421
0.074588 -0.953741 0.637971
0.009901 -0.595489 -1.176645
-0.166733 0.389162 0.448343
-1.102273 0.290954 -0.714935
-0.358894 -0.820767 0.660748
0.365519 0.633513 -0.068196
0.306313 -0.201194 0.670310
0.248557 0.786714 0.227619
0.421986 0.368634 -0.306807
0.156653 -1.097474 -0.309736
0.520095 0.747893 -0.488328
-0.184008 -0.467070 0.617771
0.236204 1.137992 -0.312224
-0.631105 -0.565943 -0.288044
0.909437 0.341555 0.046180
0.595540 0.952015 -0.265299
-0.179260 -0.977038 -0.305810
-0.603986 -0.960997 -0.311030
-0.030857 -0.356922 -0.482150
-0.308235 0.283354 0.205482
0.600232 -0.211100 -0.320710
-0.585690 -0.858681 -0.292097
-0.032549 1.124695 -0.234503
0.183905 -0.192973 0.725497
-0.625820 -0.761576 -0.265830
-0.384575 -0.676448 0.862577
-0.652720 -0.925418 -0.355052
0.574586 0.412503 -0.261464
0.587188 -1.039636 -0.310376
0.530997 0.481587 -0.315538
0.232959 0.345998 0.308937
0.375241 -0.162728 -0.318988
0.108513 -0.032401 0.106194
-0.633517 -0.459485 -0.259593
0.638334 -0.253053 -0.320297
-0.617331 0.582486 -0.286702
-0.152462 -0.710251 -0.303968
-0.285086 -0.288932 -0.306303
-0.902237 -0.391501 0.818588
-0.246413 0.563186 -0.128445
-0.561168 -0.688649 -0.269160
0.067255 -0.937392 -0.287269
0.035599 -0.930114 -0.278684
-0.110438 -0.403058 -0.304153
-0.618364 -0.886353 -0.303271
0.421515 -0.425373 -0.622012
-0.125581 0.646231 0.263805
-0.831029 -0.522604 -0.973732
0.359305 0.792578 -0.309984
0.113250 1.137992 -0.342434
-0.440034 -0.170491 -0.230120
0.148616 0.604754 0.297114
0.056003 0.133608 -0.046313
0.040295 -0.670316 0.649400
-0.537904 -0.580791 -0.308742
0.605486 -0.571604 -0.242631
0.622098 0.229998 -0.253885
0.592301 0.424432 -0.259029
0.801954 -1.195191 -0.909002
-0.085154 0.742814 -0.042343
1.056096 -0.261839 -0.073273
0.065877 0.848468 0.550631
0.273534 -0.038911 0.479991
0.515675 -0.182529 -0.291082
0.440163 -0.134233 0.025127
-0.040597 0.085088 -0.291620
-0.645639 1.098646 -0.348056
-0.133338 -0.389243 -0.313307
0.350687 0.171816 -0.311717
-0.399227 -0.208691 -0.136920
0.223889 -0.388574 0.741440
0.685869 -0.505430 0.322006
-0.211566 1.000515 -0.304686
-0.137193 -0.200706 0.714026
-0.380804 -0.574059 0.727867
-0.818633 0.787527 1.018323
0.524717 -0.989424 -0.613300
0.418922 0.788903 -0.263418
-0.416461 0.586971 -1.226688
-0.641165 -0.730338 -0.313020
-0.054466 -0.655494 0.645678
-0.858534 0.256896 -1.233490
-0.295408 -0.452097 -0.312594
0.087063 -0.420986 0.938837
-0.660603 -0.053123 -0.264520
-0.537178 -0.538844 -0.310170
0.620462 -0.897143 -0.306072
-0.814102 -0.037836 -0.337455
0.352185 0.946354 -0.312515
0.098445 0.701173 0.685715
-0.286663 0.708761 0.016593
-0.627187 -0.247366 -0.257809
0.762200 -1.273852 -0.858980
-0.175067 -0.525841 -0.309483
0.133926 0.888462 0.318395
0.399809 0.799689 0.020758
-0.355150 -0.723563 0.676344
-0.397688 -0.398127 -1.227917
0.388886 -0.293151 -1.094811
-0.567810 0.868924 -0.753062
-0.675094 -0.581653 -0.794316
-0.149173 0.877523 0.376955
-0.162259 0.749563 0.682897
-0.630155 -0.659603 -0.295214
0.327667 1.106231 -0.297834
0.400716 0.652412 0.030121
0.301411 -1.076657 -0.294942
-0.377386 -0.942392 0.638226
-0.347805 -0.462513 -0.313273
-0.634374 0.993940 -0.345525
-0.223851 0.660053 0.205582
0.295402 -0.837721 -0.303956
0.201763 -1.057733 -0.309997
0.341182 1.133494 -0.304130
-0.409023 -0.040287 0.048620
0.646915 1.025226 -0.353543
-0.307221 0.028532 0.189664
-0.166494 -1.020054 -0.310967
-0.291499 1.010496 0.052625
0.589396 0.610689 -0.292338
-0.166804 -0.259227 0.772229
0.267998 -1.015611 -0.297801
-0.164591 -0.683721 0.646553
-0.464076 -1.107035 -0.306943
0.360303 0.359657 -0.319492
0.124254 -0.560141 0.981458
0.278885 -0.526935 0.897244
0.620252 0.969230 -0.266065
-0.215343 -0.428930 0.662195
0.283018 -0.025553 0.476892
0.608932 -1.116869 -0.342725
-0.605948 0.409216 -0.334491
-0.000855 -0.101738 -0.040235
0.460609 0.372132 -0.300954
0.405740 1.000207 -0.297300
-0.222376 -0.189271 0.745140
-0.624632 -0.219247 -0.301794
0.078938 -0.486450 0.768674
-0.346755 0.652903 -0.057514
0.145639 0.642694 0.263307
-0.407602 0.062859 0.026004
-0.606596 -0.060074 -0.695172
-0.371049 -0.153335 -0.223477
-0.107485 0.239017 0.262946
0.345012 -0.148128 0.001043
-0.049104 -0.454711 0.915948
-0.014420 -0.476938 -0.284058
0.264541 0.642258 -1.031911
0.602049 0.040756 -0.253243
0.285778 -0.560601 0.994828
0.219877 -0.174865 0.733671
0.643201 -0.815473 -0.347797
-0.627948 -1.117627 -0.316588
-0.094008 -0.526276 0.738900
0.623905 -1.092602 -0.308495
0.157141 0.384954 0.449491
0.331822 -0.537803 0.970694
-0.242760 0.522632 -0.182429
-0.609684 0.503583 -0.274354
-0.309412 -0.074938 -0.010603
-0.456989 -0.673356 0.713728
-0.046859 -0.803650 -0.727763
0.624591 -0.412749 -0.291737
-0.310262 0.037268 0.031870
-0.108690 -0.290627 0.276600
-0.189353 0.369730 0.284686
-0.385349 -0.616613 -0.943199
-0.144913 -0.337943 -0.305333
0.165991 -0.800231 0.652814
-0.607640 1.064579 -0.307633
0.855660 0.920919 0.580960
-0.596437 -0.911548 -0.304474
0.507247 0.150816 -0.313672
-0.185863 -0.431502 0.660442
-0.246635 -0.032596 0.227289
-0.660225 0.977405 -0.935819
0.425908 0.036885 -0.291973
-0.330184 -0.536127 0.686833
0.992442 0.698126 -1.027878
0.052810 -0.315592 -1.292707
0.007522 0.976145 -0.692322
0.173075 -0.527602 0.712239
-0.490977 -0.783385 -0.312910
0.860299 -0.215107 -1.194155
-1.136620 0.981707 -0.043858
-0.518734 -0.152802 -0.288797
-0.576469 -0.347735 -0.671120
-0.071748 -0.508460 -0.304957
0.283798 -0.808147 0.645467
0.364206 0.872224 -0.176532
-0.444430 0.698315 -0.291005
-0.589443 -0.437502 -0.307817
0.904900 -0.290360 -0.311110
-0.178432 0.837199 0.624385
0.087195 -0.526600 0.738565
-0.357087 -0.603488 0.859089
-0.227878 -0.214863 0.592910
0.373942 -0.151404 -0.249255
-0.314453 0.542446 0.262968
0.902354 -0.298373 -1.131240
1.267741 -1.250503 -0.388113
-0.913914 -0.143676 -1.247137
0.091450 -0.354794 -0.034827
-1.291582 -1.059969 -0.325601
-1.068512 1.266971 -0.601575
-0.157853 -0.319230 0.551958
1.121699 0.767559 -1.111771
-0.816727 0.126770 -1.140660
0.926415 -0.030136 -0.703390
0.449482 -0.842723 -0.286383
-0.487074 -1.030362 -0.309173
-0.657534 0.521477 -0.813466
0.174214 -0.243828 0.406180
1.005609 0.611402 0.740340
0.118020 -0.320154 0.245647
1.281193 -0.855358 -0.274114
0.073120 -0.385503 -0.317477
-0.069388 -0.358689 0.169681
